# .PCD v0.7 - Point Cloud Data file format
VERSION 0.7
FIELDS x y z
SIZE 4 4 4
TYPE F F F
COUNT 1 1 1
WIDTH 1307
HEIGHT 1
VIEWPOINT 0 0 0 1 0 0 0
POINTS 1307
DATA ascii
20.51649393 -50.24954578 111.0430641
21.25432559 8.956183706 133.1680385
20.66051254 -54.29288254 108.7072586
20.48633303 49.77228056 111.5597174
20.55513191 -53.80047178 108.6040878
21.61565399 -0.9758909941 149.9295959
20.49614604 -47.2157898 113.0206312
20.58816028 -53.66660022 108.9632149
20.90306473 -54.11488342 109.3638153
20.86381817 -53.08825016 109.8661938
20.03989029 30.39768113 122.0503514
20.7937336 -49.89299774 111.6409505
21.14699554 -54.12896729 108.8055801
21.12552071 7.502762794 134.276535
20.78776105 23.08624712 124.345459
20.87038183 10.58638477 131.3198738
20.8959074 -42.44111633 116.6946144
20.49057633 8.953619412 133.1852613
21.18664742 -45.27184677 113.2667007
20.76451301 -51.2648983 110.752615
20.88186455 -43.53900782 116.3675257
20.85279592 -51.05385971 111.3495712
21.15604114 -28.61791039 125.8045502
20.94220607 -43.91417948 115.673762
20.90467567 -54.78834686 108.6207225
21.27115517 6.902624416 134.7160645
20.89950276 -55.58540535 108.3218308
21.57824516 9.571583748 132.8292999
20.91371894 -54.60304594 108.9198666
21.12360954 -36.99612045 120.3239059
20.71849892 -40.28669947 118.1338334
21.16964022 -54.64331436 108.4216105
22.10425568 14.78484039 130.427771
20.89487076 -46.52757772 114.340828
21.1996355 -55.18153954 107.9932098
21.16282082 -41.99930191 116.9061356
21.14354134 -52.36597824 109.2269363
21.15002537 -55.59909248 107.8216705
21.12361145 -46.00911713 114.3044357
21.21595205 -54.26879807 108.5277064
20.86280728 -55.74611282 107.7642785
20.92430708 -54.20912933 109.0325474
21.13444138 -45.05106544 114.8643799
20.91837079 -55.21519089 108.4962158
21.18725247 -52.20212089 110.0018141
20.49914823 33.28099387 121.8487669
21.6123867 -32.29548264 122.2842407
21.21523428 -53.65290403 108.9534817
20.91323934 -45.70627975 114.8478862
20.86510584 -49.1608092 112.4180107
20.81457043 -55.23336792 108.14247
21.25266533 -49.71277809 111.4991104
21.2316618 -44.89356994 113.5331421
21.18509483 -52.97987747 109.4701385
21.15992927 -51.02985509 110.841835
20.96266317 -44.17646122 115.8618717
20.80132751 -51.75473124 110.5636993
20.92960777 -53.7453186 109.1633942
21.19274597 -51.62075577 110.3600403
21.15487671 -48.88740921 111.2009989
21.17295075 -46.51289368 113.8251572
21.34805616 -49.23978424 111.4909236
21.17552185 -50.26259803 111.2992096
20.93133877 -51.21828958 111.0104317
21.21215407 -46.20218658 113.9441528
20.4429472 5.388680553 135.6516891
20.805268 -50.22708664 111.5858383
20.86951888 3.747201985 136.5369089
21.80483713 1.812391394 137.6531204
21.21091485 -49.08447981 112.0239468
20.79457312 -46.24896123 114.1464585
21.5968132 -36.66799872 118.9991139
20.81366038 -45.76274323 114.5871625
21.14328225 -48.69219271 112.4184329
20.26673656 41.25637839 116.5573057
21.68184506 9.416135528 133.109787
20.84548769 -45.18582971 115.0169616
20.85763454 -44.26011539 115.6045165
21.35446878 -46.17900294 113.6036204
21.41410157 8.741774341 133.5137216
20.9002769 -42.67518806 116.9044361
20.07273245 32.90670681 120.687748
20.90470626 -46.2075289 114.453967
21.2447969 -46.72758337 113.5098513
20.27176497 5.202728086 135.8716914
20.76368675 -43.29801445 116.1128151
20.92389552 -45.10987472 115.3023199
21.4265049 -43.76022453 115.017759
21.13869571 -37.5601654 119.9315796
21.15370369 -36.03931427 120.8186569
21.21435298 -44.68666575 114.9373591
20.78301204 -34.32607131 122.1686124
20.9179039 -40.50197983 118.3676834
21.15358124 -41.24938278 117.3791168
22.08663981 10.77760792 134.0367777
20.93016815 -28.52733994 126.3314629
21.67721577 -8.73704319 134.1894058
21.37672703 -38.74336243 118.5346926
21.22118378 44.20113264 115.432833
20.88663758 -43.71262826 116.0367639
20.37547354 3.800841322 136.6421567
21.23062706 -40.71571795 117.5488472
20.87715394 -43.17545736 116.4516638
21.51753791 -38.19666513 118.5561123
23.34719722 -0.5460458199 138.2504679
21.62058258 -35.97776794 119.2448349
21.29603562 -41.24253082 117.0352566
21.8426857 -2.211632252 137.7444458
21.28677867 -39.79332058 118.0322753
21.16703051 -39.70956768 118.3829672
21.14569044 -39.03718281 118.8878193
20.92010841 -40.18200646 118.4225281
21.40982147 5.72952179 135.4797742
22.12425995 -13.93904018 132.6675873
21.20664692 -38.66627932 118.9770594
21.7212101 12.25930767 131.1358124
21.22636763 3.461545706 136.7392756
21.69285851 -5.370001411 136.217804
21.20363045 42.6948967 116.3586655
20.92852084 -39.39776866 118.6965663
22.12806168 8.909874153 134.6491516
22.3562007 -0.2586016985 137.414718
20.57454872 30.82223463 120.6997967
21.16702938 -36.79570102 120.3211613
21.51099586 -36.69744025 119.5867318
21.57956123 -33.6033802 120.3949795
20.70001654 -35.76952293 121.1324643
20.74193573 -16.83101883 133.687384
20.61335564 28.4960041 121.718132
21.17074449 -35.1693464 121.3820746
21.33120628 -3.313944635 137.1644229
21.30915833 -9.3012923 133.6548424
20.87678422 6.600993262 134.834471
21.18379038 38.82189872 116.6931326
22.00302028 -2.454430819 141.6876145
21.20893688 16.77680874 127.6174255
20.58673667 42.96716308 114.7266884
21.68412654 13.88130037 130.1396395
20.41613366 7.867687225 134.1628732
21.30828584 -4.293151617 136.6531438
21.82794621 -1.735230929 137.6524313
21.17291355 -45.7296009 114.3542442
21.72793312 -0.6125055671 137.2427338
20.88067818 -27.08301926 127.317805
21.64700699 -13.36978855 131.7223602
23.74455833 1.442625523 141.2705231
21.38271685 -1.69297502 137.5274758
20.75798556 12.72858213 129.4257009
21.392017 4.817537436 136.0068148
21.12073708 -25.01994324 128.2971344
22.05289164 9.261779201 135.0757136
22.73620542 -1.128458301 137.6630045
20.15996313 -0.7618454844 177.0745697
20.11987495 -13.87832832 134.2788544
21.1715827 16.39166546 127.7376289
21.95641174 -2.135407639 137.9175964
21.58320618 -0.9400818944 170.1812897
20.0520761 -15.18314421 133.4212723
21.32510588 -1.254697005 137.3670205
22.16087617 11.42177094 132.62854
22.1208601 -8.695688725 135.3981781
21.41015352 7.25746069 134.5794581
21.59764481 35.02807045 119.3445892
20.82862024 4.315168802 136.1788043
21.76734238 -8.256031545 134.5995778
22.1277008 -12.88134575 133.2350922
23.43747572 -0.1510468777 138.2262435
22.82840938 -0.2311839442 137.9974583
21.56664658 36.08180237 118.7935562
21.80086464 11.24710753 132.0176849
21.65175438 -2.480932474 141.8665009
22.13046047 14.1699541 131.4368679
21.54217447 15.74333239 128.9531217
20.1117897 -33.43816757 120.7643661
22.12904167 9.479192734 134.2123515
21.92953941 3.300043021 137.5889004
21.68547935 -12.75728798 132.1180084
22.42915462 -0.7188698489 137.4959265
21.32967679 -2.269581735 137.6283913
21.77978265 -6.734416231 135.5493021
21.14534616 -24.0884428 128.8471909
21.13868189 -25.54881573 127.9009915
21.07015228 -55.03429794 107.6637497
21.36879158 3.219320211 136.9466171
21.89380903 16.74665246 129.0211281
21.59332561 15.2423563 129.338665
21.43550756 4.233428134 136.5055915
21.5381218 -0.9287987351 144.0090332
21.14387226 21.30816651 125.27108
22.03320373 9.257553291 134.0199541
21.56083619 11.25764797 131.4337046
20.88261717 7.817571145 134.0809547
21.35918875 23.75426281 124.5499097
22.003853 13.23358047 131.0066583
21.59725189 0.5188832283 173.59729
21.47745967 5.139141679 135.8934956
20.90603066 -25.56967831 128.3100586
21.42233772 2.980788469 140.5323502
21.58581543 27.15392685 123.303627
22.8530061 0.2582958219 137.5096761
21.59241963 -30.30155182 123.7118874
22.08034687 9.817036963 134.603463
21.47650251 8.248325825 133.9766754
21.72618421 -7.291106489 135.1434903
21.6116848 -13.9891243 131.3036957
21.54969597 -2.612073183 137.801712
21.50169417 -12.68288062 131.9279867
20.55304146 0.1057825834 187.908844
20.88456431 48.85544343 111.1762903
20.79335626 -29.77436845 125.1593927
20.41487344 -26.74837955 126.5243492
23.43970362 -0.7899209526 138.4263306
21.86779818 8.771081957 134.0321903
21.76979839 2.816708579 137.5721561
21.10636966 -40.94836807 117.7065252
20.89519709 -37.20693658 120.4640427
21.73752367 10.27176809 132.5571635
21.19949436 -40.18782616 117.9721881
21.41279733 10.24756513 131.996797
20.82618395 -21.12150796 126.861496
19.64293491 10.2985271 134.114344
21.67848396 -24.58045721 127.3264637
21.1393973 -43.60202789 115.8706182
22.08813858 11.17152596 132.7926788
21.44997742 -11.68358244 132.4216992
21.32748916 -38.25262902 118.9706081
21.63697624 -16.87476159 129.7634125
21.44788647 -36.1796306 120.0893809
21.26837379 45.71494614 114.4754884
22.05376278 10.71745842 132.9467128
20.91286702 -29.174693 125.8564902
21.71435769 -11.72858651 132.6705195
20.24529718 29.79721471 123.5682517
21.64716784 -12.41410541 132.2336172
20.83741025 -46.84056418 113.7074182
20.8840882 -30.6883796 124.8905487
21.26040154 -39.35610046 116.6807053
21.23272596 -15.38393838 130.2037724
20.88466168 -23.59759235 125.4643021
20.88456942 -34.70711187 122.0199804
21.62639745 -37.75455856 118.5022075
21.24957796 -39.20540758 118.5087828
21.56299618 -14.65954372 130.8954381
20.45257521 27.74605453 122.5228767
21.17257195 -33.600943 122.4516983
21.44870533 -44.24026039 114.4223418
21.15171941 -30.08241781 124.8196615
21.22861453 -53.82681656 108.5679845
20.77986813 -20.45589447 127.2453079
20.85041173 -24.58969137 124.9032347
21.62835757 -37.26190694 118.6395899
20.93311715 -24.19153023 125.1138411
20.56590462 29.81355705 121.2110809
21.20830692 -35.64461933 121.0027826
20.76668007 -22.7089125 125.9742456
21.57065646 -28.87251917 124.6801834
21.29818622 -50.75090998 110.512825
20.92312418 -35.67582294 121.4728377
21.6435994 -36.15073861 119.4897953
21.63741716 -34.28445498 120.201374
21.62649632 -37.20626069 118.8401794
21.31921864 -49.68026009 111.0752724
21.19874382 -55.23723221 107.7168325
20.8321921 -38.15445963 119.8658663
20.91613102 -54.52623177 107.9375419
21.22530537 -54.69360161 108.0880821
21.20117044 -50.77672768 110.176773
20.52556283 -49.25371879 111.1324092
21.19247203 0.6848734617 181.0799984
20.54250717 -46.38814036 112.7066218
21.37390534 -45.27866904 113.5853659
20.50435281 -40.30665493 116.1755981
21.14385986 25.45992803 123.1914845
21.224823 -52.83400599 109.0791244
20.96735509 -54.27083969 108.1053187
20.55275535 -44.74880769 113.6271184
21.1819973 -39.94001389 116.2732849
20.85996056 -40.77884102 115.7057037
20.75058619 -45.24825351 113.2058907
20.90978203 -44.02106094 113.8825607
21.32174125 -46.20914635 112.9538234
21.25979424 10.54091835 135.29953
20.71819814 -51.68899854 109.5546023
21.27291751 -51.70796013 110.0579901
20.49915975 -44.26542816 113.9756546
20.91985417 -44.32044983 113.7162158
21.76144155 -0.2117891723 137.2514623
21.27018193 -49.22965295 111.1595187
21.39997101 -41.76411115 115.5434911
21.26921708 -51.21316692 110.064609
21.28142629 -50.2271189 110.6420223
21.50122729 -39.71552138 117.5607529
20.45979452 -35.24973178 119.0883636
20.90261078 29.3873539 124.2722816
20.43679492 -36.2960807 118.5198246
20.45439358 -38.77015266 117.1108566
20.82319042 42.32425363 116.6537149
17.08371544 -1.535257578 138.7487183
20.77278366 -39.68761444 116.3562347
21.19262648 -41.85999489 115.2005806
21.59056218 -35.49623998 119.3840332
20.48861449 -37.79697991 117.6192087
21.48437818 -41.24116516 116.0488403
21.25757154 -43.79023065 114.1869871
20.77124643 -43.69214598 114.0927327
21.37702317 -47.24513012 112.532063
21.71244907 -0.6829988169 172.5313699
20.54922676 54.25796805 109.3999914
19.99948583 12.71970184 133.4972098
21.82634633 0.743753189 146.5320394
20.30048848 -1.0380072 158.5239639
22.28561513 -2.368125697 141.6402601
21.88384512 -0.7207285904 152.0036455
21.79645737 -19.71940369 128.4933887
21.94836775 -0.2095212951 163.0250939
20.61380196 15.31583786 128.27948
21.78947902 -0.706669605 155.0229085
21.21466367 2.216906043 160.5357433
20.06610036 -0.5791022181 174.536911
21.41219885 -38.22892276 117.5256244
21.69182014 -0.6235095382 177.584993
20.05288887 -12.76320769 132.1678416
21.69491466 -0.6797921012 173.960645
20.36709986 -19.80026255 131.038765
19.91424387 12.80725924 131.03002
21.30209167 2.276608705 157.5287681
20.06784276 -0.6398669311 171.5500358
21.95032264 -0.223596135 145.4686249
22.0635763 -15.23281054 132.5556876
22.14345741 -0.1062057594 152.0573998
21.68967851 -0.6581749643 176.0138384
21.43115158 37.2468665 118.0310471
21.79172247 -0.7281800473 154.5837178
21.87227474 -0.7357271025 151.5453362
21.8964386 -19.7233785 130.0338116
21.45131042 0.7668469007 173.1498621
20.20908642 -32.73068809 122.0695053
19.95034894 -0.667355662 154.5191567
21.74939287 -0.7012101896 162.0372457
20.00100581 -0.6730659405 159.433136
21.9803634 -0.278780719 155.5537508
21.73111188 -0.7292551342 163.0407352
21.42449164 -1.129250683 151.5154619
21.68883821 -33.17638265 121.0358701
21.59006609 -0.6999517126 184.1030687
22.06315301 0.7772252722 159.503943
20.38886526 -2.851481782 141.035603
21.86554259 -0.7161362767 153.03128
20.62913322 21.17348862 125.3271484
19.72492154 -12.69463438 133.0245482
21.40875939 10.76147158 131.5202809
22.01009687 0.7992810135 160.5326277
21.67244768 -0.6896192357 178.0566006
20.6605854 34.45539093 121.2485504
21.14327685 0.5737644235 183.9741669
21.18724696 2.091852268 153.5475769
21.74567064 0.6593867938 168.5002136
20.10499191 1.106506228 163.2897644
21.43884267 1.809350911 159.5401499
20.86288094 30.78546441 123.4569469
21.22953999 -0.8319762498 200.0282288
21.38032869 0.2639063615 137.1678945
21.39387226 -1.127823608 167.5425483
18.56467057 2.523020506 139.7353058
21.53339126 -0.1601754019 184.0005895
21.70914902 -25.6700119 126.479581
15.59171581 -0.1812599289 139.2273814
22.13108253 0.6154160798 159.0928917
21.94225918 16.76664757 130.5616774
22.01791168 0.8047323394 153.0261841
21.33802303 33.76595282 121.4970332
21.55441832 1.422043413 161.0371151
21.65437017 1.593495199 154.9873744
20.57719103 -17.12963263 133.3543574
20.39934945 -1.131258272 178.0224762
22.0193356 -16.19238322 132.0313597
21.52649752 15.3850904 132.196796
18.38445053 2.063182878 138.7565796
21.20957266 0.2593414813 186.030292
21.7121661 -26.31948975 124.596708
21.97504938 -0.1725428243 161.0645924
21.81168189 0.7717117896 165.5223007
20.3507921 -1.121221705 151.5979587
19.82265827 12.7597707 133.0348609
21.6947396 -0.6992231607 173.0452631
19.6396099 12.79302965 132.0896196
21.26581455 1.717042906 166.0335446
21.31800708 -39.7496302 116.5482963
20.88750386 18.80867887 126.1672621
21.32744726 -47.74785021 112.6080543
21.70937293 0.6306209479 169.5647125
21.54728966 -7.34852953 137.2182648
21.56822534 -0.8271208947 183.0429008
21.38693666 -1.119443823 150.5476189
20.51355133 -19.72645137 131.4709269
19.72617603 12.71816226 131.434744
21.69542765 -0.6671038233 174.4890518
21.29950767 37.25745056 119.4663727
21.63716411 -0.6186583042 182.9819202
21.24738163 2.242470057 159.5404915
21.27909073 1.800106525 164.5746289
16.31373045 -0.2476836437 141.6617533
20.87879467 -8.859159231 136.6332461
21.58046532 -0.9046015143 175.0388107
20.3009316 6.745519622 134.9466932
20.89287376 -5.938198328 138.2409439
21.95500456 -0.2122645928 162.0283988
21.92243588 0.7134899009 164.0245176
17.31695799 1.429356976 141.7009222
20.31081284 -1.102205005 152.072147
21.45024617 -34.75680905 119.5196726
21.13899269 0.550166738 184.5134918
20.91417957 34.20293951 121.4444485
21.57753563 -0.7373635583 184.5037975
20.946855 31.85895048 119.6682521
21.34099361 -1.174711909 152.9456765
21.76179794 -0.6570153623 165.0426206
21.74996662 -0.6845613626 164.5225777
20.99891949 -1.337965548 171.0617828
21.46242428 44.78777621 114.5479423
20.86115503 8.91045475 133.1144932
20.41675104 -29.74458667 124.5374069
21.57359886 -0.8568558991 179.998764
21.37425995 -1.061465569 147.5210988
20.23062324 -39.28359689 117.5399695
21.4843153 -12.74330363 135.1086395
21.70207596 -0.6299106424 175.4856401
21.59784012 37.38721161 118.4109344
21.67096167 -0.6311241824 179.0426941
21.25994031 -12.77118985 131.7101275
21.2123482 0.3187270554 185.0393994
21.84019786 -26.25873191 125.5277179
21.46385899 -0.7176752269 191.4905838
21.43909073 -1.107236743 159.9046898
22.91719642 2.305755523 141.0137435
21.69703277 -0.6230466068 176.6003901
21.21890579 37.29504811 117.5767271
21.73501142 -0.6663498243 169.5622243
21.7302577 -0.678939292 169.0603439
20.92111819 37.25258746 119.6432702
21.2330451 -0.1667437376 191.0390186
19.92365948 -1.654604395 142.4668757
21.67398968 -0.6199815094 179.587117
21.6588329 -0.6107138287 181.0133917
16.52722168 1.084603866 138.7100525
20.43365457 -4.326332075 136.660679
21.54083233 0.3492874801 177.0320724
21.67849134 -0.6580873867 177.0363698
21.14204661 37.46986516 117.2384567
17.37630517 -1.113232085 138.1987926
19.90155864 1.213431761 154.9950924
21.59328508 -34.60474968 119.8935451
21.68938785 -0.5413220823 180.0110677
22.9284108 2.389214414 139.5182201
21.52268286 -0.1769100108 184.5713339
21.75602166 -25.76729377 125.0498387
21.5479749 -0.1188867656 183.4837155
21.8315508 -25.72251155 126.0511479
21.64643884 -0.6571950465 181.56814
22.14556037 9.313352656 134.5319485
20.87957191 0.9769052267 179.0031814
20.94646358 1.202844346 147.5882324
19.82618523 0.2805512935 166.6028168
20.8596908 31.69194467 122.9195944
18.36266699 1.259913825 137.9789799
21.55278587 -0.7250252664 186.0099051
21.3495343 -1.166107774 153.6262429
21.24188283 0.2326218334 185.5245087
21.55811924 -0.8366258807 183.5015411
21.4760328 -1.117939055 152.0074103
21.64471531 -33.33058167 120.7118238
21.64394379 -0.6192731427 182.0906423
20.01955605 29.85620816 122.2569478
21.34008143 11.19314893 134.9060559
21.22761917 -0.1925713643 191.5502075
22.91328764 2.345532874 140.5302658
21.65599346 -0.6329939266 180.5398076
20.06322234 30.28225054 122.8767842
20.81530162 -49.70642035 110.654274
20.85100926 -0.08090613616 194.5600658
20.47935452 -47.76522109 112.060765
21.55474493 -0.8754245308 181.5631138
21.38439012 -1.103975639 149.9802971
21.43738816 -1.086713601 170.5456113
21.15172272 -0.8740522861 202.9586151
21.6326561 -0.6622117162 184.7327728
20.90803667 20.71309211 125.3831558
19.7767948 -12.21760513 133.0230147
21.90448672 -20.18518639 128.5684331
21.53889738 -0.2521587102 185.0619114
21.84926176 -25.70090967 125.52091
19.85489573 0.2391148433 167.6463885
21.54590661 -0.7386716562 187.1266512
21.39133521 -1.126548388 154.5214887
21.39681993 -0.1822363942 187.5280533
21.36023699 -0.2671047876 189.5022105
15.90548406 1.239404542 140.0056556
21.17355919 -0.3994453649 195.4578476
16.34655842 -1.614971817 140.5444395
19.82003832 0.2129171965 166.060215
20.32943571 26.25635397 123.5412989
20.9458917 31.95609474 122.7337418
21.56246482 -0.7653981828 185.5502005
21.3853491 -1.14313952 153.9821777
17.9714551 0.6880333125 142.4291878
21.19768129 0.2470530045 186.5102179
20.15344842 25.20560297 124.3619029
21.33086052 -0.255596942 190.0916819
21.26572171 -0.2940851235 192.0194298
21.46804762 0.3785534923 178.0493011
20.46059477 -48.78437638 111.5876164
21.48084984 -1.055438566 158.4841675
21.47154627 -0.6829804704 191.0271332
21.56081708 -40.09411049 117.0597127
21.38642228 -1.129767966 168.0645637
21.21062963 -0.7531830002 199.5261042
21.39717175 -1.135129035 159.0565972
21.4832468 -0.7561180629 190.5449085
21.43852043 -0.7822814461 193.0488972
21.44746145 -1.089048793 160.6273931
21.38431295 -1.149111112 162.5467122
21.37132988 -0.7486630511 195.0234912
19.7546495 0.2588451755 143.5630826
19.84871014 2.820495903 140.0333888
21.2380636 -0.7414285673 198.5774078
21.36462974 -1.161221213 167.0323113
21.19231701 -0.7966831923 200.4953147
21.34918626 -1.168301051 169.0281131
20.82792759 -7.529708862 137.3496857
20.03370503 -16.54261235 132.4661626
21.39735762 -1.13694785 171.0408554
21.17875424 -0.9215724707 202.534462
21.22221804 -1.163339687 204.0147069
20.3406496 25.20416737 126.4538062
20.65211773 -0.5177351535 197.5138321
20.66230393 -1.384760046 198.5248535
20.33452211 2.265061325 137.593078
20.5783098 -0.9263501896 201.0272878
20.91582449 -0.5866662835 200.515679
21.34093329 -26.7561366 126.5790297
20.87646437 9.100281298 132.8996963
21.4088568 46.28279155 113.5402312
20.67144823 -1.393086135 196.4946213
20.85735741 -1.411326003 200.9973206
16.85004367 1.734871844 141.0206644
20.89469922 -0.3851421734 201.5264333
19.5683775 0.6327932775 149.9850108
20.89266201 -0.7250082002 204.0048605
19.50765065 0.5934009211 150.4676121
20.90660036 -0.6824065279 203.5104132
20.89423328 -0.7459956761 204.9259208
20.90727272 -0.3819660743 201.0826263
20.65876293 -1.396227897 194.9370575
20.55294089 -1.164148667 202.5226635
20.57301839 -43.19969749 115.9243762
22.03201976 -0.2234500555 149.0425032
20.95947732 2.854094894 156.5150135
21.33615504 -29.16552968 124.9924054
20.54487887 -0.8678731214 199.4979942
20.91117305 -0.2792565765 198.4975542
20.90330534 -0.7609081813 204.568923
20.889255 -0.2436306372 197.551817
20.49593413 -0.6981257684 196.0102978
20.67729441 -1.382382433 193.1331177
22.13973468 -0.08218961474 150.6210534
20.74590531 -1.392133641 200.5638031
16.80606387 1.868549874 140.5518271
21.76819299 28.27180373 123.0574221
21.15874481 22.49253464 124.7213058
20.90204766 -0.3458465355 199.9746525
21.42558953 -27.23819796 126.0588221
20.80671851 -1.349134296 203.556989
16.2885653 1.326372973 141.0216604
21.84794715 11.7681605 133.9948531
20.93098164 2.438790679 137.2659531
20.94579133 1.863003174 169.5215207
23.80711412 1.365474492 138.9057953
20.22430458 -2.336787844 137.8321137
20.50344195 -1.10466493 201.0279029
21.77759774 -0.1911896126 175.5589862
22.02444965 0.2629966004 144.0932373
20.67456531 -1.384732694 194.4606323
20.87672746 -0.6174826843 201.5248644
21.29486296 -26.82983653 123.669003
20.79498029 -0.5022139065 198.4650021
19.53561745 0.6737764657 142.8734466
20.77047396 -0.5744797573 199.0517471
21.20073692 46.30831337 113.048817
21.31207526 22.18796178 128.3867123
20.472739 -1.098891854 199.5367983
22.08019673 -0.2961037095 150.0212701
22.12704754 -0.02740394831 149.5715408
20.75614815 -1.397492647 199.5615997
16.871807 1.824484205 139.5148742
20.861624 46.17645025 114.3943052
20.50822592 -1.160440013 200.0531988
22.08733571 -0.333295065 150.5078993
20.17180634 -0.9037438035 163.1407115
20.61032613 -0.416494439 195.3736572
20.92014742 -0.3279312532 200.5124683
21.57576021 -27.32805411 125.6831055
20.85598914 -0.6375804684 201.0500594
21.53368114 -26.78406759 126.1263175
20.91591576 -0.3273367834 199.5193829
21.22783404 -27.23932237 126.5267818
20.8999526 -0.2902616695 199.024968
21.16566467 -27.01298523 126.7919159
20.67577744 -1.396985173 193.9304504
20.89767154 0.1403352668 193.9983088
20.49096769 -0.7462794535 196.5369451
19.72223226 -5.734955904 137.0287048
20.7833724 0.4934073612 185.6194649
20.90378249 0.1627369509 193.0409329
20.65463877 -0.5096080601 197.0393944
19.35734537 0.2872756631 137.5147796
20.90793419 0.08478607612 195.9458122
21.41271083 21.7761557 128.51833
21.43616801 45.76727477 114.0041026
20.81856464 -0.1674413606 195.0357397
21.2911299 22.28396839 125.0851862
20.92940331 -1.394706821 197.0977051
21.01493263 -45.9383316 112.7639008
20.60653782 0.1169923134 188.9591904
15.71453857 -0.3941706121 139.3805695
20.38444605 -15.76851897 130.1153313
19.71789945 16.74041188 129.9820955
20.45964029 -0.7397054533 195.5320469
21.30983692 -3.015474743 140.8487617
20.87554999 -0.101479799 194.0280089
16.10080719 -1.484659553 140.0789642
20.90476895 0.1054407479 195.5367508
21.30954647 45.82380649 113.4958518
21.52578142 -29.81510099 124.1616796
20.90112813 0.6041313807 188.9098714
20.21712017 -0.959617734 156.9472045
20.46556219 -0.2118801676 189.4979655
17.04298782 2.041587319 140.109242
20.42656284 -1.121551143 192.4530199
21.85301963 -0.2275414103 171.0085387
20.49832487 -18.25456691 132.4169731
19.77790219 13.25918627 132.5323854
19.39737813 -0.7324669833 137.5981954
20.68912633 -1.397849917 193.5961965
21.55782781 -18.36652674 131.6709791
20.3993473 -0.7511130355 194.0052976
20.92405955 1.102922718 181.854777
20.88543797 1.575944702 151.640302
20.921007 0.1597411629 193.4806201
19.34227586 0.7904759422 142.6998978
20.83682823 0.437008729 187.4993772
20.82392716 4.697739243 138.6996174
20.56785154 0.5947422087 181.5660973
20.92644183 1.205904537 179.9970957
21.48975845 -23.21557213 128.549173
20.81326367 -0.08719710756 193.5869751
21.58276176 11.54550648 131.2871857
20.36970568 -1.10651347 180.587471
20.34516404 -0.7258429473 191.5723738
20.61083889 2.566393375 155.4987946
20.87379646 1.024605751 183.3896027
20.26670223 -0.6815457013 188.0143653
20.89925643 -0.1867131933 196.9567625
15.87871219 -1.203219962 140.5172227
20.69295502 -1.40272361 195.4546203
19.69276685 16.70842904 129.5362385
21.37584224 -8.761077968 134.0034365
20.60641527 0.1254186444 188.5307274
20.91914488 -29.68360632 125.4648819
20.90438509 0.5887126401 188.525135
20.19727568 -0.6908645359 185.0605399
20.17741489 -0.9107550979 158.4875946
20.89884081 -48.25169048 113.0361809
20.51133851 -0.1662022325 189.9855009
20.84206867 0.2879895216 189.5388586
22.05752786 -11.20920054 134.5930252
20.88854535 1.055539469 182.5273539
21.30570713 -23.18758872 129.0371817
20.56063776 -1.171712649 203.052491
22.03618079 0.2944028559 146.0322316
21.73891322 -0.2455404929 177.4794146
20.85745112 1.567426205 175.4584249
21.57638054 17.10791969 128.3611267
20.4508749 0.2784429148 182.5105637
20.89971256 22.82977343 124.1373768
17.43334675 -1.60814628 138.6047058
20.89387646 1.160003006 180.5348969
20.44621124 0.3059392966 182.0181839
20.85851434 22.71987354 124.4259172
17.35865796 -1.829822384 138.9573536
20.10969925 -29.06212425 124.2949905
20.84317052 0.8113400191 182.5316992
20.9340682 1.240894854 149.9439316
20.86534405 -48.13020706 113.2906837
20.44718102 -0.175570527 188.5153874
20.16278172 -0.8950746954 155.9541512
20.15784931 -0.0003445534385 179.832222
20.20994425 -0.9459542781 148.4670716
20.14803782 -0.1949832399 181.5207672
20.18292618 -0.9376067817 148.9523163
20.57910029 0.5878094236 182.0283
20.54914024 41.3799872 115.5723211
21.8722318 -11.23428483 135.0267554
20.83305001 0.4017661586 187.1024361
20.98563481 4.601828575 138.8561631
20.79617182 -33.36933899 122.7006633
20.24176359 -0.2152184528 184.0658703
20.11262131 0.3792829812 174.0942383
21.29331856 -41.4001831 115.5628327
19.60399055 -0.002824317198 152.3635101
20.89555359 1.040901691 183.0959244
20.88889758 -0.02282071605 192.0127843
23.97922134 1.552612305 141.3542175
20.87700421 29.77578408 124.0449758
20.80429478 -0.06696961576 193.0689575
20.07419682 31.7199316 121.2238426
20.52685441 0.3165445775 184.0075819
20.07024498 -22.77701359 126.6353127
20.43571309 0.3359017436 181.5819702
20.54691505 31.6102651 122.8781408
20.93072498 0.6558270827 186.080142
20.592515 0.6012322008 182.5323944
20.88878345 24.09628677 123.8141976
20.82468772 0.4496780224 186.5021629
21.67926734 -11.25683975 135.3737967
20.65812492 0.4427719057 186.0292786
20.42955551 31.78693791 120.5791733
20.90603168 0.6596610638 185.5837109
21.76497381 11.78551881 131.5601313
19.70610671 6.790039005 136.0351447
20.20411145 -15.30841723 133.6635659
20.562011 0.8659195528 178.0505981
20.85708308 -32.83329392 123.1481371
20.19582528 -0.6635262576 184.5393794
21.6437882 -35.30997412 119.7284785
20.52107773 0.3269488662 183.5423111
19.7623261 -16.19743504 132.037281
21.23710632 -1.202308207 203.0375208
20.0904638 -0.2445476483 179.5728505
20.21338291 -0.1557382225 182.5445694
20.92475418 26.27932881 122.5219551
21.59321372 -0.9029879172 174.0189591
20.09994793 -0.3278437816 180.0476093
21.45600462 4.92500484 138.2097835
20.99913101 -3.011223603 140.8921539
20.88242531 1.537170768 176.9144135
20.8480884 0.8778584855 182.0540946
21.00674319 1.244863391 150.6116314
19.88591837 -22.25771994 127.5516502
15.76837256 -0.2400745677 138.9900617
20.64105988 -45.91051865 114.2730865
20.30008803 -0.1603937986 184.9950867
20.13974571 -0.9518163204 153.7032471
20.15275383 0.4888024181 173.0873719
20.55814552 31.93540764 120.1922722
20.90897369 0.7453661687 185.0429969
20.47337952 0.2821452581 183.0074463
20.17794399 -0.225292116 182.0529678
20.85657589 23.29772719 124.0431741
21.1653738 2.589589993 157.047732
20.62140465 1.51184988 171.4103851
20.58629513 -37.38425827 117.743042
20.24841796 -0.1363248098 183.5089416
20.19455624 -0.6647980139 184.0450897
19.98490537 -17.75533428 129.569485
20.18970323 -16.83661079 132.6082382
20.22045326 0.3129201148 177.0556575
20.54218102 55.16537052 108.8826506
20.32731545 -40.2842586 116.4875455
19.59490886 10.74511957 133.4709496
21.35830389 -0.2515868791 137.1638678
21.27292042 -1.190228182 199.9953331
20.06816156 -0.2301750115 178.486302
20.84361108 1.079466979 181.5494308
21.63680363 14.11148787 132.809578
21.57402738 -23.43410174 128.2071025
20.85895886 0.3974917172 188.5617299
22.01620209 -11.21880681 133.5258751
20.57783775 0.6936840773 180.5918609
20.23532127 20.70578923 126.485549
20.93125256 48.31084887 111.5814988
20.87050883 1.13961043 180.9590327
21.17311914 -23.16331509 129.374976
19.98637067 14.21985703 132.5038487
20.26258923 -17.22528875 132.5142735
20.39058447 -1.124075309 176.9762573
22.94430828 -2.224936644 141.0172348
20.49795418 20.31543827 126.0364628
20.1894989 -0.8245544831 178.0923106
20.88661842 1.248379135 178.0362803
22.84528219 -2.255041049 141.5627805
21.3731999 4.84444875 138.466095
20.88224869 1.560708189 176.0394074
20.5597775 -1.215594247 204.066081
21.72319094 -0.2256769965 178.5679637
22.04952532 0.2751126857 147.0248768
20.91247665 1.622696439 174.5516781
20.86109943 2.363444877 142.1018143
20.06451988 15.5833528 131.831398
20.24895913 0.2457341094 178.6584843
20.19140677 -0.746803728 181.5491
20.14793205 -0.8686680198 171.0781708
21.51630807 1.796513334 157.0563316
20.29659481 0.3474774025 178.0703552
20.3725241 0.2784658292 180.5553233
19.63994549 14.29556062 131.0750353
20.36467094 -1.102540624 175.5068756
21.65730222 1.605049113 156.4691925
17.52184715 -2.03862741 141.0779358
20.90916138 1.444150567 173.5919769
20.87025334 9.25637678 136.0939155
20.320831 0.2449334671 180.0742821
20.56575131 -40.20286369 117.9169607
21.25367961 -1.174998491 202.5414084
20.08559784 -0.2511200827 179.0949167
20.41545241 -1.149461516 179.053336
21.53156721 32.7102981 120.4250835
20.26896896 0.2391854771 179.0084213
20.57800198 -1.170355754 203.524898
21.96241822 0.2679167086 145.5047249
21.73036236 -0.23825413 178.002371
20.9465754 1.619191199 174.028532
20.9406603 2.130899711 142.4086082
21.58958197 -0.9278516173 164.9382324
20.16397858 -0.8699253797 171.5592906
19.75862764 -5.234258763 137.5727203
20.36980311 -1.105661015 172.1575063
21.8033701 0.7498335152 144.0379084
21.54239464 16.03439522 128.8329926
20.19269991 -0.8470562845 177.5408554
19.98027039 0.760508587 166.0642878
20.44190243 25.80002848 123.5078169
18.37542229 0.7003010541 137.7098068
21.67339369 -31.82605362 121.6192885
20.32859194 -15.23863029 134.0154925
20.53500027 0.7617796593 178.4851769
20.83945592 -49.32303047 112.1553516
20.87494693 -11.21672191 132.4645817
21.37305737 -1.113489836 192.0741152
19.92846769 -0.2072412333 170.5186178
20.02811919 -0.6840070486 163.5459849
21.27748884 1.292841332 170.9951695
19.80204833 -13.18520824 132.5310547
15.56012752 -0.6305174927 139.6096624
20.3569557 -16.74793911 133.0646896
21.80342468 -14.252104 131.5147003
21.22618034 17.23686565 131.3546933
20.28359549 0.3709309229 177.5284337
20.32356429 -18.21338399 132.0061448
19.66453807 13.27987451 132.0334305
21.76182467 -0.2143791903 176.5079211
22.02240304 0.2876058178 145.0421024
20.93950722 1.877081904 168.5654103
19.98060722 0.7045815468 166.5546021
18.26667862 0.9396004559 137.8318756
21.72808594 -31.76498911 122.0529586
20.45188827 -1.161789167 192.0381149
21.79427301 -0.2000332053 174.5436815
22.01936701 0.2750888997 143.1492937
20.87518939 1.855679337 170.592111
19.88871638 0.2525148748 169.5671183
20.47113818 0.7382705103 177.0011056
20.26443729 0.7703872442 171.5707138
21.39432056 15.71798702 128.5564252
20.24741669 0.3718266487 176.6327331
19.80453724 0.3335964779 165.565116
21.61059189 -0.9036514461 157.0215149
20.24111584 0.7671055283 170.9820862
20.55328011 -43.72871971 115.5293207
21.25421487 28.26639806 122.0639481
20.50048392 0.7540065731 177.549457
20.89108889 2.108523532 167.507382
20.88907433 1.326657943 176.4966974
20.90560096 -1.589197499 142.8619842
21.12548637 31.3380394 120.2429199
21.83583771 1.289920283 155.0807822
16.34739941 -1.207456621 139.0385984
21.68775975 -0.2319025025 180.0339744
22.05020518 0.2796605841 147.5337729
19.83719277 0.7763795853 162.6007462
20.62975073 0.5013420954 184.5340843
21.54729547 17.8517314 130.6979234
20.45294247 0.7277968347 176.5772751
20.32223362 0.7998717428 172.5322045
19.73499489 0.2566986693 160.993276
20.4643074 -1.161624485 191.5748428
21.79642473 -0.3039664223 174.037699
20.89997578 1.839887208 170.0205833
20.60769844 2.021469116 164.5065002
20.34900856 1.098005585 146.0393734
21.22889244 14.78103304 128.6405792
20.52510567 -14.29561596 134.9254211
16.85446458 -0.2031868391 138.1329121
21.27438445 -1.192573378 200.5605324
19.96862197 -0.2404546908 173.1469669
19.91766548 2.187053476 141.9818813
21.33774143 -1.169870999 187.6133813
19.86910099 -0.1869712801 166.0332252
20.02873834 0.1852817808 174.5844625
19.6847496 1.458166599 137.8264211
21.58577029 -0.9319700202 162.1104228
21.74094804 1.152433217 161.0308346
21.7551541 -20.20586262 130.0418894
20.03312683 29.8104288 123.0377724
19.84162957 2.284841026 137.9931257
21.30692355 -1.174826129 196.5569997
19.91807281 -0.255234978 169.0897895
20.51870136 1.650278497 167.051622
21.90057367 1.244893865 156.5392461
21.6239783 -38.16053136 118.1868693
20.44539643 -1.154268602 190.9967702
20.33772468 -2.49827373 141.8787537
19.73883426 13.28420973 131.0256147
21.81456898 -0.1917465867 173.5174952
20.07769919 15.9356637 129.1481323
20.17212486 0.4870696291 173.4874573
21.306816 17.28705918 127.5664528
20.87711029 1.76438995 171.5218117
20.33439541 -1.073776961 170.9337616
21.82834281 0.7269968407 145.0213098
20.53598595 1.595068494 167.9466705
19.71757876 -6.68338991 136.5383343
19.65381463 -10.22552293 134.5468572
20.89417255 1.693163708 172.0556412
19.6126852 0.4164894521 154.4791718
20.36965943 -1.114213308 163.9969279
20.43394763 -0.7328671257 194.5352926
21.38338367 -44.72593273 114.5092087
21.47034274 -18.21276394 131.9779133
20.05334549 -0.6351155758 170.0515289
21.37478927 2.233685988 156.0383668
20.40021324 0.2618292357 137.2244503
20.19181061 0.7990683715 169.4966914
21.43984266 28.26494009 122.5106576
21.95327327 -16.75749687 130.5320348
21.32193502 -1.141089506 198.0664927
19.95549337 -0.2065169496 172.5509509
20.02325425 -14.787646 131.1073479
22.12665892 -9.87384224 134.6746788
20.01512528 0.2800311334 173.0117493
20.47685762 -1.139212283 198.0826791
20.39850655 -43.21451569 115.5004372
22.03598389 -0.2140354404 148.5279839
21.39347947 -12.25781298 132.0647898
20.92849045 1.693400478 172.5715973
19.59996441 0.3763526997 154.033565
20.03444672 -0.5589635571 171.2054952
21.33274045 2.259305208 157.0585539
20.14663506 -0.8451071978 170.5495529
20.94315839 46.80834516 112.4842326
20.47025363 1.833794633 163.1677627
20.19885597 -0.8310717702 179.5150299
20.2221552 -13.73982906 134.5697161
20.89093971 2.111931562 168.0815141
20.34078789 -1.737683535 137.6233341
20.45367889 -1.174203205 169.9983795
20.54417534 52.67401276 110.3764359
21.82783081 0.7325488654 146.0223296
22.86445954 2.342755636 141.5460234
20.85272299 46.41144507 114.2376055
20.45054494 -1.136453032 196.5260726
19.92447198 -10.17561365 135.4899285
22.08745296 -0.3400641554 151.050003
20.83483088 52.82234454 110.4592667
20.88263757 1.671350309 173.081616
20.53494978 -0.337084759 192.515543
20.14513969 -0.8611947894 160.1663513
20.15283775 -13.11221545 131.8632682
22.91268866 0.789886994 137.9754086
21.47218857 1.827747909 158.0606873
21.3054862 -1.192433119 194.5615101
19.93150534 -0.1839782072 170.9921635
20.91469367 -0.4238317112 201.9832598
21.58265622 -27.20884853 123.8982832
20.19926326 0.9445840517 167.6222687
19.94245938 0.3130594407 170.5546679
21.1972296 17.83244578 127.0922224
20.34500694 0.878306292 172.0414238
19.85615601 -0.2239565213 137.3736273
20.04577064 -0.632926333 169.0018249
21.17136955 2.112197717 163.1330363
21.23477491 -38.32921728 117.233434
20.35144663 -1.103284553 161.0995521
20.29088142 -0.8188697154 137.3249317
20.18748093 -16.58711352 129.8572366
19.67112245 15.79255223 130.0632523
20.28445918 -41.69220378 116.0608383
20.3054088 0.9293128252 169.9866715
20.40863069 -1.150133828 169.6098073
20.51481466 52.83038464 110.0548584
21.8312468 0.7427770076 147.5177833
20.25357246 0.4275798102 176.128006
21.63719749 -14.32222557 131.1739731
21.44022843 17.33392426 131.1286118
20.51243196 -16.63795294 133.5400118
20.53148778 0.676549885 179.5845964
21.38689877 17.80586252 127.546035
20.39731721 -40.19339169 117.5291147
21.20895882 -5.588140965 138.3722839
20.90440369 2.090997974 168.5487595
20.03089333 -0.6780435443 166.0534172
20.45160973 -1.141134765 193.5529623
21.89267849 -0.1936828357 167.9865214
17.39279732 0.2467846607 137.9018918
21.64367104 -21.61812782 129.3420029
18.41858218 -1.183283577 142.3532867
16.07287064 -0.5461799145 138.7371857
20.93207502 2.411557108 160.5424309
19.17848778 0.4056757092 142.7371979
18.41697434 1.621995151 138.2298944
21.35166638 -1.161784612 186.5775499
21.71070168 -32.74436257 121.5104946
19.84276113 -0.1976675392 163.1012462
20.52939487 2.139932513 161.0228004
21.33252986 -1.18089966 188.0388781
19.88120328 -0.218682179 166.5510806
19.97080612 -0.6375179631 159.0803746
20.49738884 -31.39864826 121.171875
21.30058002 0.8011103783 176.4761505
19.74074364 0.311797779 162.0441284
21.74733191 -26.70759455 124.548448
19.86489317 1.19419935 157.4638604
19.94312901 0.3177512147 169.9838206
21.59100056 -0.9298466146 157.5692711
20.89267054 37.70072297 116.9729206
20.4166584 1.670857876 163.5075645
22.85195649 1.328648061 137.9880524
20.44567833 -1.145236492 194.4871948
21.81568718 -0.2351452836 173.0388264
21.74920688 -0.2010109221 177.0443932
22.0305965 0.266994528 144.5615952
21.36131146 -12.22188824 135.4285688
20.87991865 1.788569237 171.0129025
20.76773262 -1.400231242 187.723877
21.7817147 0.7462964844 166.4870578
20.9210132 32.8452301 122.2444267
19.99017988 -0.6194649552 162.0242833
20.8871642 -28.74414444 122.5498193
20.35852284 -1.086722771 167.5543484
19.61119652 13.64073785 131.3507589
19.93429259 -17.73784488 131.5033291
21.65620905 -35.19840724 119.9731211
20.04234777 -0.6441416144 167.5574167
20.04794566 1.119619369 162.0447693
21.43814882 1.751900799 153.0818312
21.70371323 -32.22393341 122.0162029
20.38266411 -1.098540568 165.5286865
20.61557961 0.5667653978 183.4673844
21.91737088 -14.76065748 131.4996095
21.45348773 34.2519654 119.5289443
20.85323715 -1.262924587 137.3659444
20.86667824 2.047314207 169.508728
21.18831813 -22.18902804 129.973824
20.41398316 -1.144691551 168.4647674
21.81829157 0.7172763019 144.5453675
19.84451049 0.3353288418 166.9818987
19.70514617 -15.726349 132.0098006
21.54758155 -0.7026196346 186.6065397
21.38741837 -1.135152817 154.9845825
21.68050181 -33.21951955 121.4516815
20.44348316 -2.250896937 137.6679321
20.50899706 -1.16674331 200.513027
21.7071036 -0.2059927594 179.071757
22.04404143 0.2827279213 146.510885
20.83497766 2.280327238 137.4165115
20.90396173 1.875284331 169.0446007
23.79456924 1.13979604 138.668089
20.26230965 0.9743228555 168.4664246
22.04973025 -16.70979184 131.5185569
20.50439377 1.732604051 165.522113
21.56506539 -2.971213817 140.776764
20.47190285 -1.18890934 169.1228302
21.83185469 0.7380438592 147.0301497
20.2564888 -40.24997431 116.9604985
21.47236109 -5.734588385 138.1612676
20.88659239 2.078892291 168.9860725
20.19332282 -0.9132504364 166.5458374
20.35626433 -1.087340494 167.0685493
20.01702531 -0.6706544707 162.9388046
21.64593849 -26.79803715 124.1558792
20.22751579 -0.6882984012 185.53396
21.64143658 -35.05066299 120.3612289
20.89261663 29.82760155 120.6660252
20.88429642 2.564696932 162.6067749
20.40612221 -1.079745078 192.9906158
19.95798947 13.26776064 133.0143667
21.89684319 -0.221438707 167.547667
20.90898214 2.412408693 161.0792999
19.98521699 -0.647165464 158.584593
21.41404311 -1.072532242 189.5518786
19.84857782 -0.2118564299 164.074913
20.55309391 -47.34705544 112.1616497
20.81202507 31.14242554 120.3362172
19.73184424 0.2735528342 147.0276337
19.67386731 -14.18346864 132.583295
19.77254608 0.3330708593 164.0647083
17.86829195 2.191105497 140.995253
21.58650513 -0.9369693637 155.6083069
19.73758475 0.7327218851 160.5569076
20.30739036 23.26122783 125.0754629
20.85524241 47.34836536 113.7027783
20.15492185 -0.8757056594 167.4980265
20.50131702 2.155690352 159.9786326
21.44632149 -8.343354225 136.7270355
20.56980228 2.14798379 161.480217
20.90705408 -48.68667494 112.8920375
20.29836209 -0.7587573806 189.9943227
20.59077262 2.545166492 157.025032
20.01100664 -17.21498527 131.9920631
20.89779949 30.24273187 120.5813356
21.6618913 -34.69402737 120.4509235
20.51575613 1.727398708 166.0590477
22.88293648 1.235654334 138.5747223
20.50577418 2.203310887 159.5912221
20.85503566 47.76702642 113.450623
20.53117046 -0.8407341123 199.0189911
21.43448512 -44.67981974 114.0509949
19.9469223 -0.599933339 155.983939
21.16285705 0.581106931 183.3636932
20.91856693 34.29061929 118.5708852
20.57444636 -0.3627767588 193.6052755
20.15688229 -0.8809952885 161.1079979
20.39880855 -13.25796094 135.0760715
20.05514558 -0.6995398303 166.5576808
20.04216766 1.17890141 161.0986206
21.32017104 1.594783286 152.0995585
20.86998844 -33.08376503 123.2980805
20.49713306 -0.2786395542 191.0572449
20.15801478 -0.892074123 159.5317192
19.7471565 18.28682405 128.5606243
20.38303089 -1.118072432 166.5124161
21.39333933 1.67454777 152.5497353
19.99340534 1.149326563 160.5860825
22.87454236 2.32575335 139.0380392
19.99892671 -0.6043209561 164.5497567
20.0573597 1.069379568 163.0408478
21.28264527 2.243257591 158.503689
21.36683189 -1.154251867 186.1357557
19.82085018 -0.2155791122 160.520311
21.81526375 -27.22215257 125.0254816
21.7724241 0.2567617851 173.0545931
20.50397746 1.24595053 171.5406036
20.34354258 4.720388961 138.5227028
20.15326214 -0.8732129037 165.0841294
19.74587446 -5.217643989 137.0086335
21.36545807 -3.054495153 140.5557983
21.2602663 53.21781949 109.9944447
21.50294259 1.34913172 163.5745196
19.89956284 0.7694722244 163.9598541
21.4803201 1.749522022 159.036585
20.54239038 -0.3624050537 193.057001
20.18355624 -0.9182560444 161.7030792
20.52450256 -38.37049103 117.2218506
22.84596228 0.7755690486 137.5884331
21.19040832 53.62021484 109.888295
20.02676582 -0.6678150445 165.1068013
21.26511584 2.24843566 159.0247152
20.13401158 1.474457224 158.6128642
19.73719412 -3.258739687 138.5213899
15.98442381 0.2561497187 141.4094044
20.1651187 -0.8887032569 165.5727425
20.3852876 1.793075283 161.0746969
20.91567385 20.27191043 129.6578865
19.97684317 0.7784960041 165.5513799
21.4836532 1.783765861 158.5405244
20.58679915 -0.4396448732 195.106884
20.14246368 -0.864992857 163.5642853
19.75995388 0.2298059314 162.4782852
19.94718939 -14.2586648 131.5466008
21.99019671 0.2969946934 148.5607015
21.66652386 -0.2443731511 181.0131789
21.27610874 -11.87269529 132.1905212
21.57527339 -38.26178767 117.9676087
20.82548173 33.21949482 122.0311178
19.85425822 0.7765965859 163.0958303
20.45749044 1.7393644 164.0511589
20.72946358 -1.276135921 157.9344177
20.39006042 -1.141137719 159.0111199
20.83190631 -1.409168005 185.8839035
21.44506976 -31.68130061 123.0887573
20.63298225 -38.40285492 119.2840424
18.36260109 -0.2605526003 142.57453
20.58758227 -0.3488529027 193.9262289
20.13753509 -0.862519443 162.6169383
20.30724335 2.515608549 141.7453994
19.80531659 18.27435527 129.4888067
20.3908874 1.744321091 162.0455344
20.18736553 -0.811065346 178.5964088
20.25200253 -13.71567163 131.4057594
21.37236064 -41.74468695 116.5454445
20.93647088 2.231559206 165.5460465
20.31326723 -1.075896501 156.5160637
21.33808547 -5.882337387 135.6982246
20.6806469 -1.268796444 161.3210297
19.33251324 2.625459468 140.4909286
20.32548359 -1.07474551 160.5436031
20.14677811 -0.8656510413 164.3896179
21.7782709 -16.76234545 130.0780625
20.58096028 -13.26699209 135.3358154
21.39692769 -3.219825534 140.0053476
20.33362135 -1.089845379 157.4131927
20.12196922 0.5166695714 172.1074524
19.87126887 15.76394325 129.5504179
21.14882946 17.34737682 127.1732216
20.36657958 -16.75566167 129.5787885
21.79861392 0.743181252 143.607461
20.90314636 2.24575758 153.621936
20.30601353 1.840040379 158.0279541
20.18563414 -0.8588664383 174.6705208
20.32042055 2.952935994 140.4947144
20.00505321 18.89464378 127.763476
20.90818809 46.76392499 114.0432712
20.48393416 1.782822788 164.4685554
20.38520209 -1.112441788 179.4551468
20.04592094 -21.16414528 129.452034
21.33810977 32.76911565 120.0410216
20.080589 -32.23652209 121.6145043
20.88791885 -1.172755289 148.5501709
19.97792482 -0.6174076572 160.6032943
21.27889382 2.233191854 154.5768489
21.6637845 -30.80117583 122.1782169
20.83498681 -12.70553315 131.6301541
20.87188559 -28.69023308 126.0443635
21.31359291 -43.27208363 114.5713466
20.57266855 1.173475534 174.579113
20.06539186 -0.6327953339 172.5108668
19.82549413 0.7975621323 162.0448888
21.45977338 0.8527169525 171.539964
19.98132229 0.2970093121 172.0107738
19.72677872 -14.7369444 131.998193
19.86886759 0.8359137899 149.0756595
20.49672588 2.265804847 158.4799614
21.69824648 0.3147214701 137.2328072
21.89258071 -0.2125054519 168.527297
20.20451999 -30.37490988 123.6506052
21.59696261 -0.9317247073 147.5788167
19.74679336 0.7943344235 160.1318802
20.50252688 23.32799411 124.5547724
20.06659508 1.291312337 160.0049896
20.91276186 30.82086182 120.181676
21.55024607 1.79429724 154.9896982
20.82275625 47.23005882 112.3986476
20.51295395 -0.3214774162 192.0509827
20.17790508 -0.9060001522 160.5365105
20.00419998 -0.6457037528 161.5408147
20.56223361 26.82018513 122.6823188
21.37055635 2.240979838 155.5026581
21.71929258 -30.75838807 122.9891905
20.63221931 46.53822708 112.8274002
20.38974211 1.784627067 161.5372823
21.51342372 -41.68292337 116.0455868
21.71378517 0.1680685133 176.0481613
20.54664557 -19.84480585 127.6702151
20.23628249 -3.802564996 139.175596
20.57529195 2.151972294 162.050176
19.90349388 -0.5744137168 155.2464294
21.69616336 -0.2631991444 179.5217598
22.05333108 0.2632928577 148.0358268
21.15444162 -38.21114816 119.3993598
20.94609483 2.443663676 159.5925802
20.52830029 -0.82903862 198.5887766
20.89141158 2.710562944 158.0796383
21.18496075 -29.17027779 125.3624779
20.36127686 1.792381778 160.4686432
15.91016018 -0.7025320932 139.0485504
20.98585468 2.449293746 160.0376824
19.89845466 1.170771579 158.5345001
20.93574277 30.73953393 120.4134171
21.5404665 1.801099795 154.5650742
22.02139556 0.2724827738 163.0135419
18.37879413 -2.398571491 141.0091923
20.04690497 -0.5658112168 173.6378523
20.21292051 1.399798274 161.5137278
20.18174483 0.9779902534 149.0916318
19.9857129 -0.6348511146 161.0523851
21.63537598 -30.65945053 123.3817558
21.35365038 2.219527042 155.078965
19.96222741 -0.6132836427 158.0714046
20.16606378 -31.12039852 121.8697224
21.2964056 0.7178576887 177.5393799
19.84626278 0.774442243 151.4802286
21.207026 1.645614038 168.5477943
20.27398227 -0.6925670275 188.5542168
20.86084795 -0.1784619189 196.5416979
15.95644675 -1.127941906 140.9276781
20.90184773 2.714710249 159.593405
20.82435313 -47.21769264 113.5838498
20.4094019 2.265298337 156.0671787
20.52957647 -1.161652137 201.5424885
21.7686066 -0.2126064554 175.9996654
22.02890517 0.23999044 143.543664
20.54393864 -30.32915831 121.7594585
21.47688993 -0.8563852012 145.4786237
20.07346617 -0.6460534419 172.034535
20.2147789 1.430900216 161.0434723
19.88784869 -0.6886828765 152.5640462
20.86765671 32.13647651 119.8986664
20.61803055 -29.05387115 125.491066
21.35932884 -1.160572028 184.9919342
19.82389329 -0.2846084213 157.5627275
20.03544236 30.90855837 121.7402344
20.30688122 -1.086498158 154.017589
21.96901911 -0.1968158792 161.5361418
16.50000636 -0.1889871364 141.8598531
21.30780029 1.772742567 164.0202368
20.89060338 -8.687524319 133.9223429
21.55408907 -0.9491119832 146.5557862
20.33610382 -1.015141463 147.0629089
