# .PCD v0.7 - Point Cloud Data file format
VERSION 0.7
FIELDS x y z normal_x normal_y normal_z
SIZE 4 4 4 4 4 4
TYPE F F F F F F
COUNT 1 1 1 1 1 1
WIDTH 598
HEIGHT 1
VIEWPOINT 0 0 0 1 0 0 0
POINTS 598
DATA ascii
8.620472908 -2.904208899 0.2621823847 -0.5458326101 0.8378875967 0.003337225223
7.549225569 -5.383542538 1.259707034 -0.9895275993 -0.1443250493 0.0023260269
8.06698513 -3.438891967 -0.835788846 -0.7684497302 0.6399050242 0.002563611968
7.53608799 -5.374915838 1.482224703 -0.9901962981 -0.1390692376 -0.01307816593
8.048117161 -3.451957226 -0.6283079982 -0.7740841421 0.6330664321 -0.004542418019
7.799054384 -6.161963463 1.774060726 -0.8833863869 -0.4686405044 -0.002137551413
8.641274452 -2.914030552 -0.1817041487 -0.5413188836 0.8408018942 0.005103028999
7.821858644 -3.785369635 1.627857029 -0.8877731181 0.4602174978 -0.007664558944
9.068761826 -2.686384201 -3.722862959 -0.3695721073 0.9287766534 -0.02811379794
8.238507271 -3.237329245 -1.205941081 -0.7031249195 0.7110660165 -0.000683909076
8.234499931 -3.233952284 -2.075636148 -0.70250258 0.7116790168 -0.001761319621
9.158144951 -2.657345653 -1.619420767 -0.3286926817 0.9444275785 0.004203563143
8.988411427 -2.727316618 1.388299584 -0.4084126787 0.9127601559 -0.008245100373
8.012134552 -3.494746208 1.961040974 -0.7892191235 0.6140516892 0.008584763157
9.288373947 -2.627937078 -3.798576832 -0.2935689129 0.955818657 -0.01509928089
7.567335963 -4.442064166 -0.3078822941 -0.9775503269 0.2106785923 0.003144687697
8.588006655 -2.937883536 -0.642997086 -0.5769434377 0.816766003 0.00543746134
7.888547579 -3.668141603 3.327422698 -0.8497723844 0.5267558271 0.02037629504
7.851326823 -3.742652237 -3.136491835 -0.8681687277 0.4962635659 0.002352315837
7.959888816 -3.556156218 0.3832942098 -0.8146597801 0.5799178096 -0.004977633609
9.14921093 -2.656313181 3.469316244 -0.3404430966 0.9399802509 0.02314359276
8.980976105 -2.720941663 0.5880483389 -0.4225292956 0.9063409029 -0.003893846516
9.149778843 -2.655778289 -2.439659119 -0.3305603929 0.9437812573 -0.002600966778
8.014515877 -3.497002602 2.789455652 -0.7727581379 0.6346670966 0.006522025127
7.682203293 -5.921419859 -2.837239861 -0.92963878 -0.3684603377 0.002952683029
7.570272088 -4.444718003 -0.1476509552 -0.9760188161 0.2175450855 0.007836230521
8.594115893 -2.939837376 0.3385774195 -0.5729134211 0.8196130067 -0.002175130165
7.902627627 -3.641036193 3.154125611 -0.8409299264 0.5410425988 0.01047688694
7.845679601 -3.749176502 -3.342342615 -0.8649336567 0.5015266227 -0.01899516464
7.506191969 -5.048695207 -3.536859572 -0.9992555731 -0.01177513775 -0.03673752412
7.509475072 -4.972640673 2.992716551 -0.9998806976 0.01201600364 -0.009705991363
8.763590813 -2.837700009 -3.14766264 -0.4823657183 0.8759699009 0.0002157153415
7.775656581 -3.88268894 1.55060181 -0.8883526397 0.4591325632 0.005184298907
7.56985414 -4.441545606 1.566502064 -0.9728315676 0.2313127728 -0.009651023664
7.85650444 -3.734783649 -3.411252578 -0.8608786542 0.5083670739 -0.02123348613
7.906009197 -3.650123715 2.885365009 -0.8370976974 0.546955368 -0.01035714187
7.572304964 -4.443962932 1.785945356 -0.9739165711 0.2266258082 -0.01128076182
8.620721817 -2.907043457 -1.821031988 -0.5581419218 0.8297368617 -0.003786219067
7.901494622 -3.648073673 2.672576725 -0.8385514339 0.5447405532 0.00944575911
7.678574085 -5.915678024 -3.105924606 -0.9350756046 -0.354402658 0.005689437874
7.561506033 -4.466858149 0.3853494227 -0.9759223444 0.2178412714 0.01098900514
8.5729599 -2.950075865 0.06957896054 -0.5864896875 0.8098868527 -0.0106363646
7.8995713 -3.647361219 2.458158672 -0.8391607901 0.5438227067 0.008126006552
7.510968526 -5.065742016 -2.814176559 -0.9998312678 -0.01823839579 0.002190159985
7.498314857 -4.974588156 3.441784143 -0.9997511994 0.01421807518 0.01718678476
8.786979675 -2.841832638 1.170644403 -0.491341286 0.8709376314 -0.007168182635
7.773396015 -3.882941246 1.869126827 -0.8843338656 0.4668387533 0.003897759358
7.503800392 -5.084379196 -2.626144171 -0.9984583838 -0.05550523368 0.0001575293873
8.770350456 -2.836846232 0.9712451398 -0.4980040299 0.867149757 0.006579147939
7.772786736 -3.88338697 2.081169367 -0.8850727843 0.4654011452 -0.006923903672
7.566663742 -4.452386379 2.363369624 -0.9769961551 0.2128540559 0.01310205509
8.623058319 -2.907038927 -1.211821914 -0.5478550312 0.8364598063 0.01377886786
7.893343353 -3.663540125 2.078042793 -0.8443624202 0.5356657334 -0.01069230111
8.774251938 -2.839613557 1.591529369 -0.4808945203 0.876758468 0.005920225018
7.790381193 -3.862965286 -0.1461371314 -0.8882775272 0.4593057196 -0.001136059336
7.572390795 -4.445425153 2.586464465 -0.9758510177 0.2183956653 -0.004257308788
7.899845362 -3.646709323 1.870251864 -0.8388507268 0.5441936018 0.01351968544
8.768765926 -2.836937547 -0.2116590068 -0.4850065194 0.8744781185 0.007529708096
7.773550153 -3.883395851 0.06702376995 -0.885548901 0.4645461229 0.0002088780054
7.569852233 -4.440504313 1.192350507 -0.9717416989 0.2359205969 -0.007716384097
8.623272419 -2.909316063 -2.437390208 -0.5532380859 0.8330077696 0.005067165015
7.889457512 -3.659574032 1.65175488 -0.8481681743 0.5296712842 -0.007686266537
7.544733763 -5.452988386 -0.2137943283 -0.9860862434 -0.1661228455 -0.006092689321
8.107819319 -3.389735162 0.8714244068 -0.7729414404 0.6344463604 0.006272592148
7.733859539 -3.953173876 2.375964403 -0.9014751888 0.4328089316 0.004348871956
8.76488018 -2.835769415 2.378362775 -0.4836488033 0.8752412246 -0.006052586576
7.902269554 -3.655220699 1.378083682 -0.8406840009 0.5411701137 -0.01962953403
7.544785976 -5.454877377 0.754545182 -0.9850218892 -0.1723651786 0.004703501076
8.105356693 -3.386705041 0.6567337215 -0.7718369851 0.6357902101 0.00620299532
7.749036789 -3.943638802 2.572184642 -0.8978095719 0.4401458019 0.01447914243
7.898737431 -3.644667685 1.181058556 -0.836505622 0.5479530421 0.00240997206
7.501724561 -4.968314648 -3.33937637 -0.9990114511 0.03954393003 -0.02030758657
7.751970291 -3.960391402 1.553042233 -0.9068652923 0.4214168831 0.001775464096
8.769135475 -2.838972092 3.165601611 -0.4858190991 0.8740571609 -0.001970377364
7.911988258 -3.641437213 0.552778999 -0.8439826651 0.5362423867 0.01172022576
7.496048212 -4.974200845 -3.125096262 -0.9995681057 0.02588517884 -0.01391256882
7.750949621 -3.935051322 1.742390692 -0.8995210319 0.4368490898 -0.004978548168
7.90286386 -3.647231281 0.3820857406 -0.8408123319 0.5413082959 -0.004466689326
7.569332361 -4.442265153 0.5487216264 -0.9751807454 0.2209956447 0.0135439613
7.900297165 -3.648468792 2.272246897 -0.840272747 0.5421422471 -0.004847110231
8.588225365 -2.952144861 0.2617475986 -0.5789553986 0.8152951472 0.01022102749
7.545069933 -5.450726271 1.264587462 -0.9846043599 -0.1747129533 0.005444107849
8.987811089 -2.727765322 -1.021984547 -0.4015050943 0.9158161431 -0.00862852033
8.105785608 -3.387295425 -0.6306343377 -0.7582290611 0.6519843448 -0.002259434492
7.756805897 -3.937483311 2.745667338 -0.894094869 0.447847965 -0.005154164566
8.770794868 -2.834684134 3.525476217 -0.4927877316 0.8699680736 0.0177708313
7.90321672 -3.649020612 0.171198938 -0.8388731648 0.5443149436 0.003613241528
7.509564638 -4.951758862 -3.516958237 -0.9991639148 0.03619315109 -0.01901386635
7.735790491 -3.956120253 2.982936144 -0.90800427 0.4188363157 -0.01021696503
10.41274834 -2.53944397 -4.02110815 0.00821150513 0.9999538912 -0.004978629004
8.765697956 -2.838677049 3.387077808 -0.4927946679 0.8701220868 0.006400728266
7.901883602 -3.64977932 -0.04031464108 -0.8427267216 0.5382861518 0.007726030275
7.500727971 -4.966427326 -2.53581508 -0.9995567185 0.02617032348 -0.01419439071
7.745181799 -3.959253192 0.7564420998 -0.9052867713 0.4247941062 0.002414356527
7.905446529 -3.639742374 -0.244627585 -0.8371618743 0.5468421663 0.01111941594
7.503621578 -4.970896244 -2.40292573 -0.9999221773 0.01201329496 -0.003364524551
7.740494967 -3.958184004 0.8629329801 -0.9035928672 0.4283237423 0.007661725644
7.895129323 -3.646135807 -0.5192195997 -0.8430602327 0.5377838398 -0.006163257107
7.496597767 -4.976851583 -3.024793267 -0.9997837668 0.02028780653 -0.004563395669
7.738754749 -3.95561409 1.869498849 -0.9089526537 0.4168819778 -0.003806549657
7.90301013 -3.649001122 -0.7328921407 -0.841838786 0.5397187504 -0.00333598427
7.499552886 -4.968194008 -2.845283349 -0.9995956931 0.02480691682 0.01389486569
7.745550156 -3.960664034 2.109989643 -0.9033954367 0.4287079117 -0.009285012864
7.897594333 -3.648046315 -0.9447176307 -0.8429696307 0.5379498607 0.003485550158
10.39790821 -2.539621353 -2.312273741 0.04569098893 0.9989554839 0.0005242232241
7.75283289 -3.943052451 -0.1545576875 -0.8981557582 0.439675386 -0.00133752016
7.896089792 -3.643946171 -1.130614102 -0.83638617 0.5480205376 -0.01147453814
7.542854468 -4.540809631 2.048547824 -0.9870664406 0.1597483567 0.01342774255
8.565220833 -2.948440909 -1.318365276 -0.5841079562 0.8116738006 -0.001880657618
7.7379601 -3.955031157 0.06702352501 -0.9027697039 0.4301194486 -0.00203017335
7.90000689 -3.64889884 -1.318286151 -0.8360819269 0.5484621804 0.01249992772
7.548932234 -4.542409261 2.283138752 -0.9844101369 0.1754855315 0.01189582143
8.573535919 -2.95121634 -1.539551318 -0.5758989494 0.8174918354 -0.00689195777
7.501728376 -4.969563484 -2.25137941 -0.9999063147 0.01276260995 0.004947475164
7.744693756 -3.961058378 1.102586508 -0.9064510709 0.4222722223 0.005711947088
7.898373008 -3.645311594 -1.527497411 -0.8393484188 0.5435910257 -0.001740296086
7.506350517 -4.982505202 -2.02339074 -0.9999772644 0.006134765747 0.00279917454
7.746995608 -3.942746242 1.297314525 -0.8990984765 0.4377428101 0.001778109877
7.902306557 -3.649937391 -1.744193405 -0.8375170863 0.54635052 -0.008138765316
7.740209818 -3.957865477 -0.6235791743 -0.9058579344 0.4235390118 0.006009007675
10.39632988 -2.538249969 -3.628805399 0.02914820096 0.9995750016 -0.0004456776567
7.902180672 -3.648893833 -2.012482554 -0.837208205 0.546883007 -0.001182426774
7.740939379 -3.953758717 0.3810019493 -0.9018163496 0.4321179314 0.001168315288
10.40050602 -2.540889978 -3.035391569 0.03233415362 0.9994687941 -0.004078257286
7.898341894 -3.647237897 -2.224739194 -0.839479365 0.5433185623 -0.008907056244
7.541696191 -4.550358772 1.57210663 -0.986318244 0.1647961945 -0.004305318983
8.565022945 -2.948320746 -2.4260149 -0.5921048347 0.8058533834 0.003491291052
10.40816784 -2.540511608 -3.23015666 0.02767967386 0.9996140235 0.002374809301
7.74182272 -3.952247381 0.5671337843 -0.9000826848 0.4357142645 -0.002059185683
7.906610727 -3.651745081 -2.442304969 -0.8390779574 0.5440111758 0.0001484512719
7.592280388 -5.628494263 -3.614585876 -0.9681045699 -0.2493650617 -0.02430242338
8.574587822 -2.953126669 -2.626723528 -0.5914217565 0.8063606633 0.001669311938
7.741873741 -3.956292629 -0.4357835948 -0.9057402378 0.4237786766 -0.00680109824
7.904479861 -3.648756802 -3.023754716 -0.8388809579 0.5443025879 -0.003664856478
7.58206439 -5.62520647 -2.709734917 -0.9669406885 -0.2549926076 -0.002115402566
7.545751572 -4.541429202 3.286278168 -0.9825264881 0.1851762213 0.01874745743
8.576352596 -2.95153749 -3.320331812 -0.5765660495 0.8170150975 -0.007610583024
7.591941118 -5.633243799 -2.945012093 -0.9644993157 -0.2640852752 -0.0001934799664
8.581997871 -2.950602293 -3.549963951 -0.5763217214 0.8165030303 -0.03429395039
7.681599617 -5.921216965 -3.764811039 -0.9348968167 -0.3541636794 -0.02315232915
7.568374157 -4.441963911 -0.2294826508 -0.9746901133 0.2229146638 0.01697750812
8.56882 -2.968148867 -0.5310625633 -0.5882728719 0.8086598643 -0.002062079762
7.902613735 -3.654795122 3.06176548 -0.8410403756 0.540719373 -0.01654225801
7.852915049 -3.743335962 -3.235726297 -0.8712859013 0.4906561584 -0.01083570034
7.506524563 -4.951875687 2.867824793 -0.9994109033 0.03426212077 -0.001988317958
7.50929296 -5.050130367 -3.427732885 -0.9997553549 -0.003910593335 -0.021770107
8.781367302 -2.84020865 -3.042178988 -0.4834306773 0.8753816954 -0.001291369852
7.774698416 -3.871688763 2.884653727 -0.8837721731 0.4678258609 -0.009257964473
9.032567978 -2.681006908 3.205550671 -0.3976743598 0.9175226986 -0.002683476893
8.425265312 -3.075688839 3.080409884 -0.6434397877 0.7653286632 -0.01603985551
8.205446243 -6.733560085 -0.5332100987 -0.8040377653 -0.5945656958 -0.003860733317
7.525451779 -5.267032266 3.375277758 -0.994032382 -0.1090853468 0.0001027362446
7.709915638 -3.997749925 0.3806739002 -0.9067480601 0.4216533465 0.004051045435
7.519978285 -5.263306379 2.673318982 -0.9948010423 -0.1017194233 0.004903590516
8.193752289 -6.725668907 -1.216368258 -0.7904331606 -0.6125477485 0.0008211656342
7.716945648 -4.003184676 -0.5148800015 -0.9224858864 0.3860306488 0.0003572588207
7.586910248 -5.630589008 -0.1314212233 -0.9659881114 -0.2584066501 -0.009642186747
8.151031812 -3.336284081 0.05804303164 -0.7503527955 0.6610375025 -0.0003201661085
8.014641762 -3.496303916 1.349287748 -0.7822321322 0.6229742071 -0.004003577403
7.502339005 -4.981188059 -2.635215342 -0.999913557 0.01176155189 -0.005877454105
7.734166145 -3.951096535 0.6231700778 -0.9011426223 0.4333475267 -0.01232457963
7.894145171 -3.656076113 -0.3146213293 -0.8430941133 0.5376897235 0.009059659871
7.52255702 -5.26429224 -3.339635491 -0.9959174657 -0.09016102431 -0.004403551465
7.513958216 -5.155868292 2.966156244 -0.996819933 -0.07968673447 -0.0002131540785
7.680505157 -4.076485753 -0.8367881477 -0.9271954483 0.3744651897 0.009188166679
7.566032251 -4.453534921 -1.533579111 -0.9780798505 0.2081462499 0.005911398671
9.051680565 -2.685362816 1.77053678 -0.3850405087 0.9228773355 -0.006421072527
7.849535147 -3.733382305 -0.3143322766 -0.8781711894 0.4782399544 0.01009495878
8.553881168 -2.971879482 1.367684662 -0.5940954157 0.8043229991 -0.01073080952
8.147072156 -3.336921771 -1.21771884 -0.7551392918 0.6555636544 -0.0009721575639
7.68028307 -4.075426459 -1.427486807 -0.9282349578 0.3719087208 -0.007985394967
7.565948645 -4.450881799 -0.5122456253 -0.97453637 0.2242160495 0.00245493777
9.04902792 -2.686290741 1.167093515 -0.386804191 0.9221616912 -0.0005771568682
7.849540591 -3.743167222 -1.3175475 -0.8732067688 0.4871792874 0.0128949938
8.579912663 -2.953977346 1.56594348 -0.5812990409 0.8136438176 0.008669663237
8.15299654 -3.319829702 -1.442769885 -0.7519026648 0.659270523 0.002181805233
7.660735846 -5.863514662 2.780358315 -0.9445462871 -0.3283706502 -0.002242245464
7.526553154 -4.701523781 1.85618031 -0.9940913031 0.108545244 0.000641098938
8.519039631 -2.991047621 -1.533863246 -0.6130102874 0.7900187332 -0.009422779761
7.727227688 -6.031990051 -1.337373018 -0.9175608249 -0.397590451 -0.001991449019
7.859532992 -3.738532066 -2.340246757 -0.8694752774 0.4939496876 0.005142775939
7.678150535 -4.076615453 -1.21099937 -0.9316237036 0.3634052345 -0.003729665862
7.565549692 -4.451875051 -1.105409384 -0.9745940624 0.2235491967 -0.0138625478
8.576468468 -2.951993823 1.787022591 -0.581429818 0.8135936989 0.00215866422
9.059055328 -2.684020758 0.5920868218 -0.3668319698 0.9302849126 0.002070562541
8.169630051 -3.327100515 -1.638142586 -0.7496309311 0.6618479658 0.003276782513
7.661122322 -5.865789413 2.959423184 -0.9431706419 -0.3323059914 -0.001366890952
7.522407532 -4.663162947 1.66213423 -0.993419565 0.1142977246 0.007321066398
8.510099411 -2.986325264 -1.727850556 -0.6210831864 0.783736103 -0.003660105879
7.728732586 -6.031131744 -0.8587558866 -0.9144727726 -0.4046379759 -0.002767048118
7.515871048 -5.155775785 1.291070759 -0.9949797711 -0.1000638036 -0.001578080476
7.680488825 -4.077306867 0.863095656 -0.9348903563 0.3549243402 0.002955412129
9.039707661 -2.684750199 3.070180178 -0.3842859785 0.9230338025 -0.01824516859
7.849311471 -3.743173599 0.1712207384 -0.865160591 0.501448921 0.006792014349
8.146798452 -3.318131765 -2.33156538 -0.7494896029 0.6620154547 -0.0009343110396
7.611095667 -4.279493809 1.665617913 -0.9558320093 0.2937586636 -0.009540309376
8.527348518 -2.993880868 -2.420011401 -0.6210975548 0.7837332261 0.0002401402589
9.648407936 -2.537724495 2.111993313 -0.1452465046 0.9893931544 0.002153809173
7.612306118 -4.281551123 1.450083256 -0.9552850219 0.2956444309 -0.004989732968
8.527290344 -2.993781567 -3.063015223 -0.6173121925 0.7866684853 0.008851625898
7.616303205 -4.284532547 1.99137789 -0.9573038478 0.2888447145 -0.01175048141
9.637246132 -2.539081097 1.199241638 -0.1392454855 0.9902576963 -0.000624298411
8.523416996 -2.994039536 -3.308049917 -0.6188403235 0.7854634704 -0.009153726775
7.614302476 -4.292102973 1.360012054 -0.9565958076 0.2914166595 -0.0008896265901
8.522382259 -2.98945868 -3.531856179 -0.5991921581 0.7997355363 -0.0373072333
7.544319153 -5.45379281 -1.637090206 -0.9834088588 -0.1813804067 0.002857346434
8.100144863 -3.385648012 3.07173562 -0.7618427193 0.6476919295 -0.009530765784
7.646709442 -5.81829381 1.654432535 -0.9518943228 -0.3064126255 -0.002915658888
7.528935432 -4.671940804 -0.4200920314 -0.9934977559 0.1138068686 -0.003194623
8.477025032 -3.034531355 2.871065021 -0.6287209844 0.7776031439 0.006578330165
7.655245066 -4.166671634 1.371893644 -0.9436824619 0.3308227575 0.004440062246
8.103070259 -3.386800468 -1.92251572 -0.7648221247 0.6442126396 -0.006098568191
7.651354313 -5.824036121 1.043508649 -0.9476133179 -0.3194084593 0.002689953438
7.528759956 -4.682189465 0.184442386 -0.9930849109 0.1173906979 -0.001335585112
8.477311134 -3.034208536 2.6872437 -0.6289440137 0.7774503505 0.0006165572598
7.648802757 -4.180162787 0.7580419183 -0.9492393366 0.3145346677 0.003553107067
8.10302798 -3.395336151 -2.943345229 -0.7694842388 0.6386549964 -0.003715080668
7.548644066 -5.45823884 -1.12557286 -0.9840000382 -0.1780531951 0.006401924524
8.105177402 -3.388655305 1.786804676 -0.7714437146 0.6362587201 -0.007031089257
8.469373703 -3.031879425 1.771404088 -0.6329530227 0.7741831864 -0.003296195437
7.540606976 -5.450841427 -0.9522574544 -0.9847868934 -0.1731970227 0.01405581645
8.112093608 -3.379276276 1.581956665 -0.762835504 0.6465903551 0.00170486932
7.525930882 -4.668760538 -1.372720838 -0.9927392709 0.1202695303 0.001995001573
8.477450848 -3.035563588 1.553881347 -0.6313501852 0.775497464 0.0007918358448
8.46877861 -3.029928207 0.6730183363 -0.6318022627 0.7750933647 0.007495128469
9.157291889 -2.656935215 -1.329273582 -0.3334130784 0.9427783746 0.002157676749
8.022445679 -3.496799707 2.070652644 -0.7801536365 0.6255877275 -0.0005464750542
8.989232063 -2.724255085 0.6727412343 -0.4024848748 0.9154220421 0.002900069334
8.463978767 -3.047051271 0.4421442548 -0.643570847 0.7653748322 -0.004234512479
8.484234333 -3.035434484 -0.2071588635 -0.6219420421 0.7830478992 0.004907525527
8.479447842 -3.033707738 -0.4264185727 -0.6228532489 0.7823354866 -0.002239810225
8.461483637 -3.04922239 -0.6540455023 -0.6320555754 0.7747002927 0.01857972497
8.022817612 -3.494570017 0.4658485353 -0.7913589196 0.6113461167 -0.002643099719
9.162103653 -2.653379679 -2.944058895 -0.3307977346 0.9436937142 0.003877185773
8.973371506 -2.726234674 -0.9319533706 -0.4161216406 0.9093064486 -0.002136037208
8.469682693 -3.032307148 -1.307192504 -0.6320489595 0.7749245979 0.002445460339
8.479042053 -3.034071565 -1.751497805 -0.6299965619 0.7765927155 -0.002843644829
7.679107189 -5.920208931 -3.289783716 -0.9292189728 -0.3695143881 -0.003349275495
7.562488397 -4.449185212 0.1825400939 -0.973762769 0.2273896906 -0.008944177051
8.57703495 -2.952487469 -0.1249867976 -0.5617180959 0.8273286786 0.000195648543
7.853303115 -3.734335979 -2.000752807 -0.8696097459 0.4937189202 -0.004529633267
7.499591033 -4.966942946 2.482308706 -0.9997543182 0.02145770641 -0.005556084016
8.766958714 -2.839373231 -2.642350674 -0.4832285496 0.875465933 -0.007040527694
7.775146246 -3.883238196 2.456081569 -0.8874841325 0.4606953529 0.01147634321
7.648741722 -4.17908287 1.98547554 -0.945970295 0.3240657157 -0.01102782444
8.105322361 -3.387515604 -2.519438088 -0.7764854039 0.6299352667 -0.01587379259
7.659784317 -5.862855911 2.253234744 -0.9491847524 -0.3146922155 0.004137073009
7.524709463 -4.669503093 -1.016707271 -0.9928426515 0.1194153829 0.001853546175
8.474971771 -3.036518812 3.062822342 -0.6397879853 0.7684177355 -0.0143358848
7.66201067 -4.154533386 2.174593687 -0.9422291306 0.3345880497 -0.01597192761
8.103951931 -3.385987937 -2.735248506 -0.7731022965 0.6342693446 0.003903559237
7.685647249 -5.924259663 -2.545369864 -0.9320992309 -0.3621464961 -0.006398361345
7.574614644 -4.444951177 0.9779357016 -0.9736664214 0.2278570752 0.007406292453
8.577629566 -2.949232936 0.678574264 -0.5824070087 0.8127881351 0.01332379796
7.851957957 -3.733243704 -2.801239967 -0.8707769917 0.4916180907 -0.007686586512
7.507608652 -5.084271908 -3.047991276 -0.9985996315 -0.05284924448 -0.002394445992
7.500306129 -4.978744626 3.251313925 -0.9997493222 0.0222418193 -0.002567929851
8.763495445 -2.836910844 1.361034811 -0.4865742917 0.8736375733 -0.001687933063
7.786215401 -3.870686483 1.662193155 -0.8909856975 0.4540014658 -0.005211128542
7.502838771 -4.969103495 2.641824643 -0.9998357306 0.01735758131 0.00521787576
8.774272919 -2.835539818 -2.843037844 -0.480237687 0.8771262265 -0.004620258797
7.785033131 -3.871684885 2.664916611 -0.8865301369 0.4626622428 0.002822321011
7.557281494 -4.467582703 -0.4150268734 -0.9767065957 0.2145386417 -0.004170988979
8.582538605 -2.951247931 -0.7373341918 -0.5762172037 0.8171265922 0.01666932927
7.851452351 -3.743127644 -3.021446526 -0.8691927149 0.4944726401 -0.0009125195569
7.891382599 -3.659038591 3.260444546 -0.8463286153 0.532349627 0.01821399108
7.544997215 -5.455172539 -1.411094964 -0.9826755504 -0.1845341619 -0.01720190844
8.045003891 -3.447841883 -3.448460102 -0.7824564449 0.622608779 -0.01096449432
8.100123405 -3.396364371 2.850637833 -0.769101201 0.6390998615 -0.005891495969
8.427825928 -3.078160286 2.861057162 -0.6374791412 0.7704002397 0.01018897479
8.42145443 -3.075698853 1.576468349 -0.6391898249 0.7690489902 -0.0001359128633
8.3972435 -3.094225287 0.8874742687 -0.6370284443 0.7708395599 0.001064904432
8.410204887 -3.086308241 0.6606099606 -0.6381015487 0.769948316 -0.002450359468
8.400984764 -3.091476679 0.4757734239 -0.6493386289 0.7604977566 0.001583402301
8.421673775 -3.074954987 -0.617939055 -0.6447552124 0.7642612904 0.01397841283
8.429574013 -3.076343536 -1.524227679 -0.6288371263 0.7774967994 -0.007911737001
7.646203518 -5.818636179 -3.229905963 -0.95009016 -0.3119651424 0.002537262053
8.878547668 -2.78165555 -0.8398394287 -0.4643853963 0.8856261026 -0.003551069193
9.066055298 -2.687683821 -2.617933035 -0.3761061504 0.9265254889 -0.009730473947
7.817026138 -3.788229227 -2.61892271 -0.8760334986 0.4822140845 0.005906440473
7.659276168 -5.851528804 -1.035962343 -0.9436349598 -0.330950813 -0.004962053417
8.878858566 -2.774426063 -0.6026373704 -0.4587288758 0.88855794 -0.005710143654
9.05757618 -2.685636759 -2.450116873 -0.3842545917 0.9232270975 0.0003676135653
7.820537806 -3.786339283 -2.809081674 -0.8740249476 0.4857864328 -0.009588156801
8.383929888 -3.098052104 3.274943749 -0.6479387137 0.7616883572 -0.002503938515
7.502539992 -4.97814548 2.274297118 -0.9999251848 0.009629673004 0.007542826189
7.787480545 -3.860729599 2.26964941 -0.8856001298 0.4644451665 -0.00175996078
8.83096981 -2.800806284 2.249732733 -0.4680043828 0.8837259543 -0.0005790904368
8.386064529 -3.118728399 2.01038003 -0.6440542417 0.764927199 -0.008972962967
8.829101562 -2.801637173 2.018843651 -0.4628444937 0.8864354472 -0.002678150909
7.808893204 -3.810742617 1.869074821 -0.880721617 0.473622205 0.003382351317
8.194664001 -6.723171234 -0.857530117 -0.8027197245 -0.5963551095 -0.00127563056
7.511996269 -5.154800177 -1.044652581 -0.9973993107 -0.07198614968 0.003550945282
7.712252935 -3.982341687 -1.747691671 -0.91929614 0.3935591102 0.002415335142
8.377054214 -3.116057873 1.790422201 -0.643400734 0.7655242071 -0.002860740489
8.378976822 -3.118586779 1.572069049 -0.6413335837 0.7672355436 0.006391792329
7.500797033 -5.080441713 -2.316515207 -0.9985870674 -0.05245112815 -0.008529239582
8.771632195 -2.839743853 2.07441783 -0.4886656924 0.8724234857 0.009116065103
7.785939503 -3.869030714 1.185572934 -0.889208227 0.4574784498 -0.004711356647
7.565438112 -4.451155821 1.896992842 -0.9751881213 0.2213777832 -7.177845812e-05
8.630719185 -2.908725262 -2.362029076 -0.5535134417 0.8328257351 -0.00491576485
7.892999649 -3.647690535 2.772818208 -0.8396447376 0.5431357805 0.0004883378809
7.507654667 -5.06340917 -2.530241887 -0.9992322188 -0.03737153598 -0.01176185633
8.758677006 -2.834866524 2.264124036 -0.496596728 0.8679731867 -0.003773194489
7.787487825 -3.859682878 0.9693762561 -0.885811594 0.46403909 -0.002354325308
8.369709015 -3.114604712 0.9138816595 -0.6409388813 0.7675919081 0.0001141558173
7.807932377 -3.809773922 0.7804325819 -0.882556858 0.4701756881 -0.005311751016
7.514435768 -5.159152508 -1.324988604 -0.9968247467 -0.07948598322 -0.004733171078
7.717520237 -3.986378352 -1.201703151 -0.9109762776 0.4123454737 -0.009666019996
8.377531052 -3.116041899 0.700080514 -0.6442467987 0.7648176497 -0.0001583442135
7.534693718 -4.769740582 -0.7221904397 -0.9950499293 0.09930482115 0.003767053551
7.631532669 -4.200207233 2.862935543 -0.9555836701 0.2947028948 0.003170687603
7.813320637 -3.80910635 0.5676175356 -0.8814597544 0.4721977684 -0.007613730978
7.67598772 -5.916591644 3.704371691 -0.9257863278 -0.3773786262 0.02247326636
7.517023325 -5.15697813 0.8485231996 -0.9968888613 -0.07865537368 0.005092190226
7.648572326 -4.179695606 -2.013739467 -0.9475950097 0.3194560597 0.003394640976
7.516526937 -4.759237766 -0.5290535092 -0.994920487 0.1006338154 -0.002461651404
8.828968048 -2.796585083 0.4370630085 -0.4690036304 0.8831962047 -0.0002421440351
8.778553009 -2.842232466 -0.1271393299 -0.4912263563 0.8710083018 -0.006419121462
7.787046909 -3.861169338 0.1720573008 -0.8848098066 0.4659340063 0.004136180927
7.56742692 -4.440150857 2.478727758 -0.974702963 0.2230399621 0.01439823813
8.623149395 -2.908280253 -0.9333819151 -0.5474618792 0.8367734321 -0.00978335842
7.891752402 -3.655168215 2.186749538 -0.8391837825 0.5437001405 -0.01267818853
8.761694908 -2.834088564 1.676996589 -0.4790326421 0.877796611 -0.0009152012619
7.787315178 -3.8712605 -0.04716780689 -0.8865078042 0.4627060647 -0.002647784409
8.378973961 -3.117894769 -0.6417221129 -0.6457031523 0.7634517918 0.01444993762
9.047380447 -2.684780478 -0.7358973622 -0.3719055674 0.9282631264 -0.003717141701
7.804182529 -3.810078263 -1.31601733 -0.8878470365 0.4600671538 0.008115036266
8.375437737 -3.115177274 -1.517580509 -0.6439813212 0.764889092 -0.0152556501
7.789097548 -3.862347523 -1.527116299 -0.8918741476 0.4522652293 0.004082563678
7.536677361 -5.379645824 2.081366777 -0.988537692 -0.1507978596 -0.007296373052
8.046015263 -3.450476646 -1.651885748 -0.7711180672 0.6366787419 -0.004135935804
8.354436874 -3.13542819 -1.953366995 -0.64189567 0.76678351 0.003605217795
7.791589101 -3.862974485 -2.019578973 -0.8901544922 0.4556543651 0.002019803358
7.789882421 -3.86256067 -2.226223032 -0.8867333826 0.4622386339 -0.006273240332
7.656479359 -5.851237774 -2.238053481 -0.9420398942 -0.3354759112 -0.004092776421
9.068737984 -2.688195467 -1.230572343 -0.3641626368 0.9313162958 0.005960793714
7.80551815 -3.809563875 -2.406037331 -0.887154852 0.4614652988 0.002458984389
7.676974773 -5.914979935 1.8753649 -0.9357380026 -0.3524023137 -0.01438748598
7.507591486 -5.153413296 1.853263199 -0.9968275686 -0.07943733362 -0.004950598011
7.856641412 -3.743051708 0.7570323944 -0.8735101174 0.4867646997 0.006340496999
7.674319863 -4.070997238 1.868685007 -0.9338589107 0.3576377136 0.001673569872
8.056145191 -3.454393744 -2.514607906 -0.7866244795 0.6173238022 -0.01154346065
10.41822624 -2.540885687 0.8364368081 0.05104738982 0.9986555867 -0.009010163599
7.741645336 -3.956339836 -3.351395369 -0.9081630506 0.4183586467 -0.01469409334
7.54564333 -5.45524621 -2.322099447 -0.984258079 -0.1767215522 -0.00235094527
8.047503948 -3.450713992 -2.726939201 -0.7820050313 0.6232679899 -0.002267995738
7.51543045 -4.856028438 2.478212774 -0.9972030959 0.07473840788 0.0003947637518
8.83257103 -2.80082202 -3.190567255 -0.4693326676 0.8830183047 -0.002349603405
8.768105507 -2.837521911 3.05349803 -0.4875410879 0.8730973525 -0.002168094023
7.788914522 -3.861015638 -3.020019333 -0.8845616917 0.4664075488 -0.003822555442
7.741240501 -3.95400095 3.252415657 -0.9023379043 0.4304777738 0.02179891877
7.780508327 -3.868566275 -3.238357925 -0.8869599132 0.4617467238 -0.009595600766
7.740669727 -3.954759479 3.09412241 -0.9050409119 0.4253141812 0.00296565078
7.644635201 -5.81930685 -3.018865585 -0.9458287644 -0.3246067113 0.0061993043
7.809156895 -3.811808348 -3.209083796 -0.8831688023 0.4690383614 -0.003985255458
9.060342789 -2.687321782 -2.012818515 -0.3768129953 0.926250849 -0.008445786716
8.883201599 -2.776969115 -0.2231228501 -0.4618241225 0.8869633976 0.003796209398
7.785541534 -3.866608938 3.26014936 -0.8889397932 0.4578959927 0.01083069188
7.64303875 -5.815307617 -3.602361441 -0.9510385017 -0.3090340463 -0.004870980206
9.05648613 -2.685671329 -2.244569182 -0.3812567515 0.9244266248 0.008871575769
8.869874477 -2.779814839 -0.4394814149 -0.4705635201 0.8823621868 -0.002635295303
7.777114153 -3.883540809 3.09476912 -0.8863342254 0.4630235295 0.004566408411
8.297628641 -3.173319399 2.184221745 -0.6595815318 0.7516324525 0.0009269889107
7.653421044 -4.182260394 3.050592661 -0.9469498283 0.3213563941 0.004011319706
7.633797646 -4.262930393 -3.279620886 -0.9547325797 0.2973596481 0.007933528753
7.509845257 -5.052498817 -2.150592923 -0.9995905897 -0.02664812744 0.01041778824
8.768663406 -2.837986231 1.875197709 -0.476871075 0.8789732317 -0.0001892001843
7.777402163 -3.882561386 1.391211361 -0.8887926697 0.4582472594 0.007552450816
7.573155403 -4.477766991 1.273166776 -0.9742261146 0.2255698639 0.001309269965
8.627999306 -2.908509731 -2.136230946 -0.549523442 0.8354294947 0.009030284383
7.894009471 -3.648648024 1.769333184 -0.84086094 0.5411327819 0.01132219051
7.515611013 -5.067423185 -2.712387323 -0.9994950244 -0.0315633858 0.003667261337
8.765563011 -2.834787726 0.8554429412 -0.5007620536 0.8655722975 0.004686520552
7.781509495 -3.870395803 0.7508335352 -0.8839782739 0.467513321 0.00370216119
7.573127389 -4.443959475 0.6571769565 -0.9736940251 0.2271226626 0.01830960503
8.626501083 -2.908146262 -1.938920796 -0.5452784752 0.8382425172 -0.004568037049
7.900732517 -3.640998046 2.360013405 -0.8362831683 0.5482499218 -0.007244700564
8.759763718 -2.835153818 -0.5476390421 -0.4951759101 0.8687863241 -0.003337840621
7.781008005 -3.882377863 0.5673648417 -0.8858911843 0.4638910385 0.001383437585
8.337878227 -3.155730724 0.475132525 -0.6646255181 0.7471679299 -0.003606287426
8.776664257 -2.840229273 -0.3223728389 -0.487453352 0.8730620337 0.0123253741
7.787056541 -3.869706202 0.3867542207 -0.8871018974 0.4615625206 0.003203621347
7.787280369 -3.871760321 -1.948734522 -0.8898004733 0.4563484963 0.001080571456
7.652249177 -5.846568584 -3.735905806 -0.9420375538 -0.334816414 -0.02152245696
9.07363224 -2.686623335 -1.925314069 -0.3698149383 0.9290956712 -0.00425970875
8.87476778 -2.781223655 -0.1281479448 -0.4687754552 0.8832905905 -0.006877893412
7.766664505 -3.905921459 3.32502389 -0.896229801 0.4429648906 0.02354250453
7.728051186 -6.031322479 -0.554603219 -0.9115775081 -0.4111157967 -0.00320131723
7.508109331 -5.154264688 0.9626018703 -0.9957665246 -0.09157945913 0.00788866628
9.046767235 -2.685653329 2.949871421 -0.3792256667 0.92525097 -0.009926537594
7.852945964 -3.733598391 0.07369796932 -0.8644311487 0.5027512091 0.0001040089093
8.155103683 -3.319402456 -2.437758684 -0.7477994798 0.6638184023 -0.01187715275
7.686480641 -4.075968981 1.18161881 -0.9284494088 0.371411306 -0.005944495063
8.710590363 -2.879108667 2.67091918 -0.5137417179 0.8579034252 0.008435658643
7.958193302 -3.55874294 -0.1484367866 -0.8081776674 0.5889321192 0.002795876235
7.972646236 -3.533954859 -0.3325058222 -0.7966046687 0.6042093371 0.01876376066
7.962297678 -3.56137383 -1.214332014 -0.8057919114 0.5921577266 0.006972976152
7.96532615 -3.551410119 -1.421371142 -0.8033395159 0.5953246522 0.01530296198
7.954867601 -3.556811631 -1.644455463 -0.8051575318 0.5929769698 -0.009983099792
7.952764352 -3.564224641 -1.846625884 -0.8153771307 0.578900722 -0.005838559506
7.612599611 -4.280305386 0.3859349415 -0.957145755 0.2895872149 -0.0033539002
8.668462276 -2.893989444 -2.029820681 -0.5301578198 0.8478961635 -0.002186797948
7.965673685 -3.560848057 -2.717371583 -0.8117010893 0.5840610603 -0.003744255255
7.96000874 -3.558655441 -2.931409121 -0.8153179536 0.5790039191 -0.00333109678
7.966239452 -3.560185015 -3.146901071 -0.8042327676 0.5942642317 0.007725185082
7.965027094 -3.557804704 -3.335416079 -0.809182799 0.5875545025 -0.001704234869
8.676749706 -2.892053366 -3.60021162 -0.5261518972 0.8501693048 -0.01939933789
8.76299572 -2.839598417 2.970025301 -0.4925669732 0.8702163991 -0.01005960243
7.73652792 -3.950427771 3.322437286 -0.9034068054 0.4274863434 0.03334021706
7.783144569 -3.871137094 -3.140017843 -0.8841807081 0.4671382405 -0.002517867854
8.63523674 -2.915196657 3.31892705 -0.5504395739 0.8346586455 0.01900581577
8.234743118 -3.235825062 3.067260742 -0.6970519128 0.7167937337 -0.01803813307
8.640583992 -2.914899826 2.654887199 -0.554650094 0.8320091158 -0.01114021895
8.644190788 -2.915363073 1.765301585 -0.548852653 0.8358865741 -0.0073756782
7.522176743 -4.760099411 0.4754174352 -0.9944992373 0.1036645545 0.01499757036
7.929285526 -3.570719242 1.583669662 -0.8199840509 0.5723362255 -0.007576361096
8.37631321 -3.114258528 0.2009542584 -0.6524549265 0.757823224 0.002555380718
8.641261101 -2.914144039 1.543933034 -0.5572892861 0.8302953771 0.006183713768
7.593004227 -4.362930775 -0.229000628 -0.9661332591 0.257971907 0.00608448262
7.721830368 -4.003737688 -1.904746294 -0.9118918539 0.4104047516 -0.00460288559
7.867607594 -3.720384995 3.070600271 -0.8614597152 0.5078257512 0.0004068228984
8.63092041 -2.909714699 0.4283496141 -0.5485176536 0.8361359094 0.002263766007
10.42502022 -2.541913033 -0.8677970171 0.04948644699 0.9987743093 -0.0009851917488
7.900114775 -3.647602499 -3.236406684 -0.840318968 0.5420403229 -0.007504686951
7.739872456 -3.955545306 -0.2524537817 -0.9022570897 0.4311671684 -0.005197786505
7.51978159 -4.664413929 -2.835456014 -0.9928731886 0.1189951996 0.006555437742
7.928821564 -3.572898149 -0.3315861523 -0.8171073906 0.5762112242 0.01778025281
7.898114681 -3.649176955 -2.119266152 -0.8399876202 0.5423996486 -0.01494721172
10.41675806 -2.541306019 -3.33833921 0.03974573943 0.9992088149 -0.001421421056
7.740828753 -3.955271959 -0.7319151461 -0.9028841567 0.4297882436 0.009070015356
7.524589062 -4.670127869 -3.440130711 -0.9942168225 0.1061755398 -0.01611411486
7.931934357 -3.574514151 -0.9710407257 -0.8142165496 0.5805561558 0.002441375259
7.572059989 -4.444325328 1.458276868 -0.9748957118 0.2226542439 -0.001854376355
7.904236913 -3.648730099 1.5557549 -0.8406022509 0.5414098492 -0.01622439104
8.628898621 -2.909621477 -1.129287243 -0.5542305828 0.8323630634 0.0004378585712
7.735883236 -3.951495886 -1.128413439 -0.9034273765 0.428658046 -0.008441272281
10.39541149 -2.539087772 -1.131989837 0.05271574421 0.9986075157 0.002019874477
7.740470409 -3.957039475 -1.317359388 -0.9056731462 0.4237439982 -0.01404194273
7.567955136 -4.441632152 2.693547785 -0.9753223288 0.2207422644 -0.004382647527
7.903652549 -3.648674309 1.983243555 -0.8380110469 0.5456124773 0.006671564969
8.626609802 -2.909719944 -1.573230147 -0.5448007144 0.8384395524 0.01453611431
10.39827394 -2.538248539 -2.144945383 0.04656737521 0.998911156 0.002825239324
7.739315271 -3.955275893 -1.953592837 -0.903451725 0.4286882636 0.001163284321
7.530592918 -5.37408638 -2.167655945 -0.991510172 -0.1296438931 -0.01000199054
8.621520996 -2.907236338 -0.7942255735 -0.557200133 0.8303767466 0.001571754774
7.588737726 -4.361195087 -0.3081888855 -0.9651017016 0.2618570226 -0.003099241688
7.847373486 -3.767163754 3.329321623 -0.8690200418 0.4938418021 0.03040462868
7.720458984 -3.986676852 -2.214261373 -0.9066230357 0.4219304285 0.003063439439
7.907141527 -3.64131403 -3.413722197 -0.8442573657 0.5353939279 -0.02414212975
10.39495945 -2.536753893 -1.849650502 0.0462816816 0.9989271996 0.001567101826
7.741936684 -3.956662655 -2.437820435 -0.9016983226 0.4323508726 -0.003585818383
8.636696815 -2.91348052 -2.693876743 -0.5546514885 0.832064975 -0.005440924998
7.739048004 -3.956184626 -2.834881306 -0.9001842983 0.4355091605 -1.433513694e-05
7.547960758 -5.457849026 -2.840560436 -0.9838508979 -0.1789086909 0.005393608322
8.06029288 -3.438067913 -3.201489846 -0.7770058396 0.6293854729 0.01165554477
7.577942848 -5.552326202 2.277792215 -0.974311627 -0.2251562523 -0.004638476409
8.195702553 -3.278584838 1.954488277 -0.7251824573 0.6885567472 -9.797922844e-05
7.50545001 -4.950154066 -3.240344167 -0.9985239638 0.05178071246 -0.01639059401
7.733850479 -3.955237389 1.682646632 -0.9022154637 0.4311944689 -0.008864931165
10.42761421 -2.541668892 -4.101822853 0.0005647667289 0.9999609736 -0.008816589862
7.901587129 -3.651458681 0.278194949 -0.835701985 0.5491820726 -0.001115055071
7.737908125 -3.955305576 2.666367531 -0.8977216184 0.4405591986 0.001867710352
7.902436733 -3.648718894 0.06473704893 -0.8412720375 0.5405886603 0.005025864725
7.78902626 -3.860116402 -3.421036243 -0.8874525755 0.4600907483 -0.02728423816
8.760164261 -2.831923485 3.474313736 -0.496425813 0.8680039957 0.01142259091
7.75217406 -3.940856457 2.872209072 -0.8986822741 0.4384567271 -0.01121911772
7.903572798 -3.651368678 -0.1463844106 -0.8456600148 0.5336210549 0.01037829887
7.539917231 -4.551271081 2.652754009 -0.9857373798 0.1682869766 -0.00114524989
8.578409195 -2.951340675 -1.125028372 -0.5791773917 0.8151959317 0.003023550729
7.735446453 -3.955133438 0.1463200301 -0.9029123676 0.4296675139 0.01162255935
7.901616812 -3.651269495 -1.211822182 -0.8412229546 0.5406882147 0.000441688428
7.51200819 -5.154455185 -1.437607646 -0.9968503586 -0.07881639005 -0.008794273674
7.717426062 -4.005175829 -1.317607641 -0.9159936175 0.401062858 -0.010211593
7.497915268 -4.966810544 -2.127068202 -0.9997402321 0.0227423097 0.001501876317
7.735588551 -3.951168418 1.179692626 -0.9051389053 0.4251048289 -0.003073530328
7.895599246 -3.644796431 -1.426662058 -0.8365962601 0.5477074138 0.01110344384
8.21149826 -6.739325047 -0.6009895802 -0.8059523979 -0.591980269 0.0003055169329
7.508042336 -5.151167393 -1.212501705 -0.9970802442 -0.07626809366 0.003763587258
7.708636522 -4.000893354 -1.525221229 -0.9218345377 0.3875835939 0.0002071216176
7.743274689 -3.954956889 1.391543925 -0.9044967143 0.4264799849 -0.0007185780892
7.899621844 -3.649083197 -1.642167985 -0.8423654053 0.538862987 -0.006870610066
7.74425602 -3.955512285 -0.8113571405 -0.9023128354 0.4309248304 0.01163347162
7.902614752 -3.638994694 -1.844804605 -0.8409902096 0.5410476688 0.001699287135
7.532497406 -5.37549305 -1.94055891 -0.9911442276 -0.1327668559 0.002466170786
7.593511343 -4.364852667 -0.1473245099 -0.9657670329 0.2593957128 0.002811101828
7.858225822 -3.745758295 3.147420406 -0.8710166197 0.491231136 0.004692464251
7.714250326 -4.003175735 -2.008688688 -0.9186393639 0.3950253432 -0.007529766727
7.547113419 -4.546549797 1.352884213 -0.9838709342 0.1787870218 -0.005760697381
8.580106735 -2.953151226 -2.236846447 -0.5873670198 0.8093162368 0.002685686814
7.735034466 -3.954527378 -1.716799855 -0.912639117 0.4086573316 -0.009435439082
7.90606904 -3.650681376 -2.712164044 -0.8426978456 0.5383749038 -0.003578274489
7.528165579 -5.368886471 0.4630399048 -0.9919132132 -0.1262671577 -0.01283675989
7.604234695 -4.348181248 0.6646182338 -0.9641803471 0.2643029353 0.02236552366
7.853590171 -3.734338045 2.359167417 -0.8655191372 0.5008568951 -0.004358172243
8.626533508 -2.908046484 0.2074721009 -0.5482978245 0.8362820457 0.001354883869
7.709070921 -3.999709368 -2.807791352 -0.9117517151 0.4107338227 -0.002556756043
10.42072392 -2.54275322 -0.9347601533 0.05266634841 0.9986086206 -0.002660576101
7.738776207 -3.956451535 -1.526344657 -0.9069634215 0.4211273216 0.008314515573
7.904741526 -3.650290549 -2.92758888 -0.8379342132 0.5457644343 -0.002727008382
7.595112006 -4.361241023 0.4677553475 -0.9640412616 0.265231511 0.01663404737
7.85428977 -3.745180309 2.563637137 -0.8751095368 0.4837679134 0.0123249573
8.626776695 -2.911848783 -0.01368235331 -0.5429592357 0.8397087924 -0.009187617405
7.711149216 -4.000959158 -3.017333269 -0.9219893827 0.3872145083 -0.0007089932498
7.744983196 -3.957608223 -0.5164592117 -0.9043532777 0.4267776536 0.00244611987
7.903875709 -3.649365544 -3.139363647 -0.8369698592 0.5471847876 0.008382300159
7.531233788 -5.371818542 0.8341478109 -0.9919118155 -0.1267381973 0.006955550926
7.594693661 -4.367096186 1.081680059 -0.9641028636 0.2655033837 -0.003690753254
8.616732597 -2.902984142 0.5441380739 -0.5453402321 0.8382097691 0.002900731017
7.713204384 -4.001908541 -3.233399034 -0.9140535772 0.4055492181 -0.005990803209
7.678875923 -5.917800903 2.114916801 -0.9318108127 -0.3628264714 0.009249923011
7.518512487 -5.15923357 2.466042042 -0.995884025 -0.09056516345 0.00359999856
7.676382542 -4.071736932 2.878647387 -0.9280653488 0.3723867989 -0.004772874974
7.594482422 -5.632806301 0.1887159497 -0.9646127441 -0.2636662444 0.001538015756
8.154015064 -3.320838213 2.16355896 -0.7549946387 0.6556390894 -0.01097633175
8.018479824 -3.49845469 1.082027793 -0.7805744722 0.6250606222 -0.00164678413
7.569270015 -4.443191767 -3.216899157 -0.9737980105 0.2273819527 -0.003857772857
7.520772457 -5.155895233 1.683821142 -0.9955600877 -0.09393605106 -0.006010838793
9.049335003 -2.686148524 3.470045686 -0.3872829484 0.9214502284 0.03068215308
7.856626511 -3.744929373 1.392341584 -0.8744390018 0.485114561 -0.004504977228
8.160193443 -3.321436644 -2.744889379 -0.7537764727 0.6571117431 -0.005018599693
7.677911758 -4.075145721 2.082025647 -0.9326797688 0.360677519 -0.004491785421
7.68233633 -5.920180798 1.669945359 -0.9314031694 -0.3639779135 -0.002866090505
7.511993647 -5.154386282 2.076106906 -0.9965700512 -0.08274458793 -0.001210912409
7.85396862 -3.742041469 0.9707029313 -0.867551817 0.4973207185 0.005093905279
7.683863878 -4.075745821 1.657132357 -0.9298155049 0.3679971212 0.004609301587
7.525972207 -5.256235917 -2.338531256 -0.995179627 -0.09798296116 0.004104792459
7.574118257 -4.444574714 -3.326663435 -0.9734446072 0.2286917454 -0.01028018815
9.05264473 -2.684479475 3.153107166 -0.3780121017 0.9257740342 -0.007020584345
8.159647465 -3.321807623 -3.445387721 -0.7377119403 0.6749237096 -0.01609594359
7.850895405 -3.745019615 -0.1462678444 -0.8756608259 0.4828919835 0.005783615943
7.682041168 -4.073451877 1.393300563 -0.9339203982 0.3572969811 0.01146983219
7.666400671 -5.869038105 -3.120505571 -0.9432441658 -0.3320585852 0.005247822627
7.537727356 -4.770311832 2.544870853 -0.9944949776 0.1046856098 0.004545625101
8.8803792 -2.784025788 -0.7251236588 -0.4636852661 0.8859619996 -0.008204222447
9.052230835 -2.686953902 -2.528642178 -0.3793334771 0.9252341713 -0.006916741887
7.801052094 -3.80965817 -2.704513431 -0.8830365522 0.4692962341 -0.002737173929
7.513417721 -5.155237913 1.184303522 -0.9963062172 -0.08585887223 0.001475030807
7.56744504 -4.442491651 -2.949785233 -0.9692785489 0.2458369986 0.007953918763
7.849769115 -3.745016873 1.075728148 -0.8658053023 0.5003760305 0.002237557282
9.066333294 -2.686371446 3.592564344 -0.3676857116 0.9289601697 0.04289779175
8.157109261 -3.320978165 -2.220824718 -0.7573430431 0.6527920089 0.01714958315
7.678999066 -4.073817015 0.968889147 -0.9337804641 0.3578278232 -0.003646062752
7.656258424 -5.850707531 -3.539830526 -0.9479640597 -0.3183755236 -0.001080510595
7.633847713 -5.727591991 2.952548027 -0.9578189685 -0.2873718154 -0.0005131794492
7.785213153 -3.86166199 3.163914124 -0.8866282902 0.4624194044 0.007653072388
9.05496645 -2.686778069 -2.124139547 -0.3807512162 0.9246617334 -0.005402798897
8.879021327 -2.774377584 -0.3362867534 -0.4621197694 0.8865681777 0.02102819417
7.801891804 -3.810001373 -3.103619576 -0.8834496703 0.4685169117 -0.002929766605
7.727172852 -6.034312725 -0.13637577 -0.9130034333 -0.407817037 0.01048785848
7.51272583 -5.159336567 1.380780935 -0.9964548408 -0.08410676433 -0.001949971186
7.571964979 -4.446510315 -3.138850808 -0.9703158871 0.2414561537 -0.01363836973
7.857947826 -3.738682906 1.278979301 -0.8597385525 0.5107304583 0.002005101635
9.041494846 -2.682517767 3.356060386 -0.3851851889 0.9227020555 0.01591499101
8.167860031 -3.32622242 -2.874494791 -0.7517883409 0.6593975999 -0.00301591413
7.680693626 -4.07416141 0.75610286 -0.9277173792 0.3732537123 0.004704314293
7.732603073 -6.036325932 -1.938201547 -0.9066047381 -0.4218830165 0.009086763375
7.524376074 -5.25454553 -3.129208883 -0.9953908837 -0.09590052675 -0.0002785303819
7.512125969 -5.153432846 3.160359144 -0.9967290198 -0.08079051498 -0.00203807462
7.56709671 -4.443485856 -2.516291022 -0.9713200501 0.2374659852 -0.01213532595
8.583904266 -2.952729106 1.178098857 -0.5703654806 0.8213810076 -0.004056955247
9.06008625 -2.686820388 2.382006764 -0.3718403114 0.9282731397 -0.006615209907
7.858697653 -3.718204141 -0.9431987107 -0.8632283221 0.5048136921 1.270204949e-05
8.160814285 -3.322147489 -1.010961741 -0.7534777089 0.657466188 -0.003090945613
7.688735008 -4.078069568 0.5440728664 -0.9252789366 0.3786131943 0.02260394857
7.502604961 -4.944635391 -3.436513424 -0.9990225303 0.0439966632 -0.004275223066
7.735512257 -3.953540325 1.468709946 -0.9052853421 0.4248038817 0.0003337293486
8.76313591 -2.834304333 3.277420878 -0.4832361438 0.8754637811 0.006782126042
10.38957787 -2.536297083 -3.947454214 0.00821150513 0.9999538912 -0.004978629004
7.881536484 -3.667075694 0.4767498672 -0.8485993979 0.5290340623 0.001422252656
7.723216534 -6.020026207 0.6423500776 -0.9153630556 -0.4025963517 0.005162753397
7.532527765 -5.284950892 -2.528554281 -0.9938399831 -0.1108044373 -0.002112975803
7.564177227 -4.447686005 -2.337196875 -0.9713404433 0.2376377194 -0.005104660758
9.040606499 -2.684089422 2.58096838 -0.3898168159 0.9208869469 0.003175062206
7.868010044 -3.723096848 0.5194380283 -0.8625255556 0.5060041619 0.003074754476
7.680122256 -4.074065447 -0.04169137101 -0.9306673593 0.3658475101 -0.003723665603
7.733102798 -6.035191536 -1.097078681 -0.9147649606 -0.4039757906 -0.002937262915
7.563879649 -4.451271216 -1.716922641 -0.9720345875 0.2348362241 0.000841728309
9.047540665 -2.68388629 1.568993926 -0.385729378 0.9226079789 -0.002713711924
8.600855827 -2.933855772 1.980609417 -0.5770032317 0.8167375384 0.002657823099
7.852092624 -3.744328201 -1.743110061 -0.8688079258 0.4951055963 -0.006575454647
8.157317638 -3.319059014 -1.820385873 -0.7549118363 0.6558260902 -0.0005087118976
7.680049896 -4.074761271 -0.2525286786 -0.9273588143 0.3741729663 -0.0004699202146
7.515573502 -5.156831264 2.687012553 -0.9958410303 -0.09110692969 0.0004119498222
7.72501421 -6.029289246 -2.232968092 -0.9073800517 -0.4202837222 -0.004799440425
7.565254529 -4.450211525 -1.822917581 -0.9726732591 0.2321399877 0.004213912591
8.151771545 -3.32058692 -0.9311211109 -0.7579561151 0.6522695064 0.006857015918
9.050299644 -2.686483979 1.689631939 -0.3799077392 0.9249291055 -0.01327627438
8.565982819 -2.96457696 1.056709488 -0.5953855794 0.8034296488 -0.004100158342
7.845733881 -3.741710663 -1.640394688 -0.8750508576 0.4840042764 -0.005084979398
7.682552695 -4.076489329 -0.5151208416 -0.9296321673 0.3684318809 -0.00647939966
7.73208952 -6.035586834 -2.361769676 -0.9060242562 -0.4231840996 -0.005938431595
7.523940563 -5.253557523 -3.544630766 -0.9954199935 -0.09314455253 -0.02152043107
7.511974812 -5.151388645 2.792183757 -0.997245937 -0.07397661101 0.005291709285
7.683441162 -4.078410506 -0.6239646673 -0.9294122697 0.3687479247 0.01475808505
7.567701697 -4.443234682 -1.332206607 -0.9776664553 0.2101276144 0.003832478604
9.061487198 -2.685264468 1.977622867 -0.3904222071 0.9206340047 0.001878698302
8.582624912 -2.950416207 0.7890185118 -0.5822450237 0.8127954237 0.01882369837
