# .PCD v0.7 - Point Cloud Data file format
VERSION 0.7
FIELDS x y z normal_x normal_y normal_z curvature
SIZE 4 4 4 4 4 4 4
TYPE F F F F F F F
COUNT 1 1 1 1 1 1 1
WIDTH 243
HEIGHT 1
VIEWPOINT 0 0 0 1 0 0 0
POINTS 243
DATA ascii
0.022596359 -0.15295608 -0.078243874 -0.16664581 -0.96443504 0.2051688 0
0.0071613039 -0.12841269 -0.080622219 -0.44844213 -0.88678324 0.11187107 0
0.015289259 -0.13730215 -0.07895381 -0.2174377 -0.95132273 0.21841645 0
0.022993157 -0.15127912 -0.075126015 -0.16664582 -0.96443504 0.20516877 0
-0.27264082 -0.12608053 -0.054383788 0.010551594 -0.99993968 -0.0030694664 0
0.018239226 -0.13698007 -0.070356548 -0.29718971 -0.93948734 0.17041615 0
0.06979423 -0.14294839 -0.055824958 -0.40750298 -0.90785533 -0.098691538 0
-0.22662514 -0.1256339 -0.056806155 0.0099924086 -0.99995005 -0.00023960651 0
-0.15113468 -0.12486523 -0.057840582 0.0097660888 -0.99995226 -0.0003675255 0
-0.12227964 -0.12463884 -0.054578278 0.0099766329 -0.99995017 -0.00034333448 0
0.011756287 -0.12477895 -0.069129363 -0.44844213 -0.88678324 0.11187106 0
0.12480056 -0.18918845 -0.038123883 0.7911377 -0.049371373 0.60964221 0
0.13136993 -0.1790992 -0.03575385 0.81369829 0.31622633 0.48774582 0
0.12088266 -0.15304114 -0.036621995 -0.64749163 -0.74466664 -0.16194497 0
0.13063449 -0.16442709 -0.035384979 0.87403363 0.38138211 0.30101961 0
-0.2712549 -0.12607515 -0.035870079 0.01055159 -0.99993968 -0.0030694697 0
0.074636973 -0.13372098 -0.040013168 -0.49738601 -0.79264385 -0.35259452 0
0.091569372 -0.14209779 -0.039507259 -0.44569695 -0.89342457 -0.056096073 0
0.10946684 -0.14668165 -0.037169058 -0.44334871 -0.87309515 -0.20284653 0
-0.22757323 -0.1256617 -0.037054334 0.010007266 -0.99994969 -0.00065970403 0
-0.22417161 -0.12559761 -0.036456868 0.010007265 -0.99994969 -0.00065970427 0
-0.18534029 -0.12522997 -0.037242122 0.010066745 -0.99994928 -0.00035975329 0
-0.15140694 -0.12487254 -0.042110171 0.009604251 -0.99995381 -0.00046422993 0
-0.12142613 -0.12458353 -0.039549209 0.0099766357 -0.99995017 -0.00034333527 0
-0.095077477 -0.12432665 -0.043729082 0.010257378 -0.99994737 -0.00027336256 0
-0.07093367 -0.12407338 -0.037884753 0.0099577848 -0.99995023 -0.00057340763 0
-0.050028879 -0.12387534 -0.038047742 0.0099911699 -0.99994993 -0.00058251381 0
-0.02564423 -0.12362947 -0.032462373 0.00095642603 -0.99999517 0.0029530067 0
0.073558129 -0.11391642 -0.037331522 0.94316113 0.32637659 -0.062652253 0
0.073635161 -0.090328135 -0.037017345 0.85610133 -0.039966404 0.51526034 0
0.07339628 -0.067588232 -0.03712273 0.86744881 -0.016816588 0.49724215 0
0.073539734 -0.044182841 -0.037426379 0.95731705 0.020020956 0.28834561 0
0.073396102 -0.020750601 -0.037476718 0.96261656 0.016595511 0.27035886 0
0.072576143 0.0026345246 -0.037566356 0.96776325 0.0095178755 0.25168166 0
0.071396865 0.026188727 -0.037585653 0.97743189 0.024163647 0.20986418 0
0.070957109 0.049227286 -0.037272774 0.9794178 0.012034626 0.20148438 0
0.070418715 0.072821274 -0.037346013 0.98003596 0.013411145 0.19836737 0
0.069884874 0.095971495 -0.037290923 0.97942293 0.016691988 0.20112705 0
0.06916862 0.11963105 -0.037616041 0.97846758 0.016738122 0.20572072 0
0.068821505 0.14295706 -0.037397526 0.97505105 0.032467384 0.21959338 0
0.068557575 0.16721927 -0.036885176 0.97248828 0.031659395 0.23079053 0
0.068190917 0.1896345 -0.036585048 0.9708159 0.015214864 0.23934303 0
0.067703478 0.21342042 -0.036558349 0.96716839 0.019264111 0.25340512 0
0.067107655 0.23696886 -0.03641367 0.96261281 0.017573053 0.27031046 0
0.066832937 0.26042259 -0.036088839 0.96052641 0.016009467 0.27772766 0
0.066186436 0.28509119 -0.036028083 0.95700318 0.028485533 0.28867531 0
0.06542743 0.30767679 -0.036624819 0.96210837 0.014853003 0.27226233 0
0.065561749 0.3300775 -0.035347249 0.96899712 0.024889376 0.24581514 0
0.065066911 0.35227218 -0.0356193 0.98355812 0.028437827 0.17833877 0
0.063950025 0.37798479 -0.036257438 0.98108691 0.029290801 0.19133849 0
0.063205481 0.40000266 -0.036785048 0.96748948 0.036330197 0.25028822 0
0.062752709 0.42797986 -0.036334012 0.95044136 0.01431179 0.31057414 0
0.062524974 0.44901916 -0.035848722 0.94050509 0.020873601 0.33913791 0
0.062678538 0.47420186 -0.032978296 0.93026441 0.020749466 0.36630264 0
0.061466042 0.49100518 -0.035234001 0.92602056 0.019946681 0.37694559 0
0.061600942 0.51202446 -0.033528447 0.92371392 0.035508037 0.38143376 0
0.06032218 0.54108924 -0.03584677 0.91366822 0.033074506 0.40511277 0
0.059806559 0.56078798 -0.032764167 0.91835839 0.027895434 0.39476544 0
0.058682077 0.58739078 -0.033137202 0.91967732 0.032053571 0.39136457 0
0.058255475 0.61178666 -0.034702342 0.8996622 0.039753418 0.434773 0
0.055623312 0.63527161 -0.031174924 0.90929633 0.038845882 0.41433218 0
0.057702277 0.63551396 -0.03538207 0.90929633 0.038845878 0.41433221 0
0.055638984 0.65536731 -0.032923974 0.90929633 0.038845878 0.41433218 0
0.05737773 0.65838045 -0.037672885 0.90929633 0.038845886 0.41433218 0
0.055505514 0.67051935 -0.034316678 0.90929633 0.038845878 0.41433224 0
0.07535354 -0.20306057 -0.0088318167 0.64259905 0.13738491 0.75378507 0
0.10144953 -0.19301243 -0.009570213 0.38623041 -0.22878206 0.89357984 0
0.11903042 -0.18288465 -0.014281687 0.74819416 -0.23013623 0.62228835 0
0.1301688 -0.17848319 -0.024069238 0.83909744 0.081276506 0.53787512 0
0.029019238 -0.1503336 -0.0072663529 -0.41346252 -0.66514152 -0.6218003 0
0.07957001 -0.1499707 -0.0069300397 -0.20772088 -0.65227032 -0.7289688 0
0.096140109 -0.15141365 -0.0090705771 -0.29903704 -0.57024318 -0.76511413 0
0.1178712 -0.15832941 -0.016560044 -0.64406568 -0.41815162 -0.64056903 0
0.12978946 -0.16560642 -0.024143426 0.83771795 0.24836247 0.48635864 0
-0.27374896 -0.12612186 -0.015916053 -0.039425936 -0.96331596 -0.26545781 0
0.022699799 -0.13559066 -0.014948682 -0.27129295 -0.64602679 -0.71347702 0
0.049591064 -0.13918673 -0.013229981 0.014114999 -0.49702629 -0.86762071 0
0.071934395 -0.13662365 -0.018465232 -0.46668521 -0.57342231 -0.67334372 0
0.091814592 -0.14391816 -0.020030195 -0.31111649 -0.85999161 -0.40450081 0
0.10844906 -0.14690879 -0.024010072 -0.47323328 -0.80681467 -0.35369545 0
-0.22670127 -0.1256375 -0.01539576 0.010826492 -0.99993992 -0.0016882694 0
-0.22423695 -0.12559842 -0.029834792 0.010239496 -0.99994582 -0.0018847864 0
-0.18558338 -0.12522122 -0.014706773 -0.0022301516 -0.99565667 -0.093073919 0
-0.15182428 -0.12489008 -0.019970547 0.0098341489 -0.9999513 -0.00079682714 0
-0.12179533 -0.1245952 -0.015458582 0.0099897785 -0.99994892 -0.0015422979 0
-0.09429317 -0.12430608 -0.018331109 0.010149866 -0.99994636 -0.0020430279 0
-0.070787206 -0.12408066 -0.01679608 0.010179712 -0.99994576 -0.0021690927 0
-0.049910925 -0.1238759 -0.018387092 0.036014415 -0.99057382 -0.13216062 0
-0.022653427 -0.12359962 -0.016795853 -0.00016705036 -0.99999368 -0.0035512298 0
-0.002239787 -0.12343895 -0.020197257 -0.21198253 -0.97631288 0.043319929 0
0.014389433 -0.12432615 -0.016086068 -0.47972128 -0.87717533 0.02075823 0
0.053906202 -0.1045816 -0.018046252 0.7792837 -0.037792053 0.62553072 0
0.070831634 -0.11401235 -0.022933984 -0.57846695 -0.2467611 -0.77748632 0
0.070575632 -0.090423569 -0.022406695 0.88438338 -0.014398427 0.46653917 0
0.070735402 -0.067455903 -0.022282653 0.8715989 -0.058493491 0.48671755 0
0.070940591 -0.043880247 -0.022020901 0.95424443 -0.0082729245 0.29891306 0
0.070964567 -0.020097684 -0.01909359 0.95216095 -0.018209249 0.30505413 0
0.072474062 0.0028970465 -0.018558258 0.95940244 -0.047187809 0.27806529 0
0.072919041 0.026310509 -0.018364627 0.96825087 -0.036951549 0.24723442 0
0.072574176 0.049769141 -0.018259974 0.9782123 -0.0026303616 0.20759052 0
0.071677208 0.073063143 -0.018318722 0.97790056 0.0053528347 0.20900173 0
0.070762597 0.096265391 -0.018254805 0.97556919 0.060674295 0.21114795 0
0.069940336 0.11947521 -0.018526029 0.97488379 0.058162119 0.21498552 0
0.069028609 0.14317097 -0.018706147 0.97503573 0.0086425003 0.22187969 0
0.067889214 0.16651073 -0.018158676 0.97225541 0.008195485 0.23377821 0
0.0671691 0.18946402 -0.018381171 0.96676862 0.052964352 0.25010657 0
0.066389121 0.21300152 -0.018374993 0.96486694 0.014700533 0.26232755 0
0.065746263 0.23643962 -0.018804789 0.95793086 0.038321186 0.28442901 0
0.064607441 0.25937721 -0.018079309 0.95677274 0.047209553 0.28697953 0
0.063730501 0.28398389 -0.018346574 0.95808458 0.01768662 0.2859388 0
0.06303113 0.30689454 -0.018587155 0.9610799 0.024714082 0.27516297 0
0.06194054 0.33036858 -0.018502602 0.96817946 0.018549668 0.24956839 0
0.061629165 0.35392952 -0.019579466 0.96563071 0.025703629 0.25864381 0
0.060908403 0.37692434 -0.02014274 0.98108691 0.029290797 0.19133848 0
0.060651463 0.40071923 -0.021559566 0.96778041 0.034473449 0.24942477 0
0.055013757 0.43442157 -0.013899492 0.95306158 0.029140748 0.30137071 0
0.060405105 0.42380723 -0.022907013 0.95788866 0.033017382 0.28523558 0
0.055116531 0.45041609 -0.015221602 0.93576485 0.022262525 0.35192114 0
0.059443098 0.44969121 -0.023227552 0.94050509 0.02087358 0.33913773 0
0.055157568 0.47156534 -0.016998226 0.93052477 0.023383852 0.36548153 0
0.059487395 0.46995297 -0.025018843 0.93052477 0.023383852 0.3654815 0
0.055271123 0.49403384 -0.018906595 0.91525292 0.030667229 0.40171087 0
0.058602549 0.49356219 -0.025356043 0.91692215 0.036354765 0.39740679 0
0.055315778 0.51813555 -0.02096983 0.92709643 0.030969629 0.37354115 0
0.058239199 0.52142447 -0.026885813 0.92709613 0.030969625 0.37354219 0
0.055352438 0.53871536 -0.022742523 0.91366869 0.033074506 0.40511185 0
0.058018338 0.54118085 -0.028110877 0.91366869 0.033074513 0.40511185 0
0.055503234 0.56025654 -0.024603983 0.91835839 0.02789543 0.39476538 0
0.057172701 0.56753081 -0.029084211 0.91993117 0.029335402 0.3909809 0
0.055675399 0.58309001 -0.026586467 0.91754258 0.029626908 0.39653221 0
0.055578478 0.61529803 -0.029441679 0.8996622 0.039753426 0.43477303 0
0.05340882 0.67623836 -0.029917497 0.90929633 0.038845859 0.414332 0
0.022325218 -0.19909045 0.012848989 -0.036364529 -0.28656438 -0.95737064 0
0.075240143 -0.20308521 0.0075179315 0.84664768 -0.32204434 0.42364514 0
0.081041589 -0.19611534 -0.0066540041 0.7600264 -0.33076417 0.5594238 0
0.025651643 -0.18340029 0.010244274 -0.50112385 -0.143906 -0.85332644 0
0.072029129 -0.18586536 0.0073465239 0.77321798 0.052147556 0.63199264 0
0.091117203 -0.18114436 -0.001638365 0.27641529 -0.101344 0.95567983 0
0.10761648 -0.17810823 -0.0049868822 0.48049602 0.05507594 0.87526584 0
0.025660908 -0.15962952 0.0069812639 -0.6014877 -0.29991603 -0.74044788 0
0.040839873 -0.15607391 -0.0014417246 -0.16391475 -0.69649512 -0.69858885 0
0.069923103 -0.15992302 0.0012802384 -0.13442345 -0.38158101 -0.91450876 0
0.091917187 -0.16149049 -0.0025822402 -0.28123856 -0.40496859 -0.8700031 0
0.10784498 -0.16616587 -0.0050743427 0.47136489 0.18300979 0.86274135 0
-0.2746236 -0.12616169 0.0033414869 0.19330482 -0.89934969 -0.39217791 0
0.018776951 -0.13770558 0.004560309 -0.81400865 -0.49145889 -0.30960941 0
0.053829193 -0.14406475 -0.0064870589 -0.035961099 -0.64116228 -0.76656228 0
0.065870397 -0.14709212 -0.0048283404 -0.12882842 -0.63067985 -0.7652753 0
-0.22676812 -0.1256865 0.010683925 0.10899207 -0.99203843 -0.063090444 0
-0.18573038 -0.12524614 0.0025889466 -0.092627145 -0.9337182 -0.34581882 0
-0.15126748 -0.12492382 0.0042118612 0.059738863 -0.89224368 -0.44758511 0
-0.12112882 -0.12462622 0.0051608966 -0.021695791 -0.99238127 -0.12127954 0
-0.09455654 -0.12436841 0.0073903771 0.00994993 -0.99104756 -0.13313797 0
-0.070799351 -0.12411301 0.0038663046 -0.016738821 -0.97449404 -0.22378831 0
-0.049875066 -0.12389576 0.002123089 0.030645764 -0.99450326 -0.10012071 0
-0.022116102 -0.1236351 0.0067681991 -0.020779526 -0.99264121 -0.11929624 0
-0.0012157103 -0.12362769 0.0071641589 -0.28554401 -0.93295944 -0.21920599 0
0.011801253 -0.12477981 0.0026520875 -0.38869348 -0.89235604 -0.2293864 0
0.060965784 -0.011342471 -0.0064864564 0.94597703 -0.037581544 0.32204825 0
0.063068502 0.004640854 -0.0035124118 0.96031767 -0.015740911 0.2784639 0
0.063474812 0.027034087 0.00041423179 0.96256024 -0.014506026 0.27067938 0
0.063189246 0.049292646 0.00094480166 0.97536266 -0.0050469413 0.22054969 0
0.0625588 0.072596304 0.00025360231 0.97577494 0.015132462 0.21825241 0
0.06192214 0.0959846 -0.0005105983 0.97577649 0.020270949 0.21782872 0
0.061413351 0.11935452 -0.0013384703 0.97493416 0.019727103 0.22161716 0
0.060801633 0.14297447 -0.0021295079 0.97328222 0.018707674 0.22884865 0
0.060106926 0.16654603 -0.0027635249 0.97068906 0.018531105 0.23962313 0
0.059754673 0.19018339 -0.0039015787 0.96521503 0.043209773 0.25786185 0
0.058415715 0.21393143 -0.0036888155 0.96181941 0.044125725 0.27010423 0
0.057854146 0.23607905 -0.0045377864 0.95793086 0.038321178 0.28442901 0
0.057203177 0.2593255 -0.0053222519 0.95677245 0.019983677 0.29015008 0
0.057169016 0.27807084 -0.0065443055 0.95571309 0.022014553 0.29347557 0
0.056237508 0.30959734 -0.0063033127 0.96002352 0.0032089567 0.27990085 0
-0.25920224 -0.22467554 0.021357421 -0.96668035 -0.094293915 -0.23798695 0
0.073284984 -0.22329822 0.032938365 -0.90521109 -0.33615255 -0.25998917 0
-0.27178508 -0.20328289 0.035808083 -0.96668041 -0.094293952 -0.23798688 0
-0.26071653 -0.2066358 0.022572126 -0.96668041 -0.094293967 -0.2379868 0
-0.038539421 -0.20155323 0.021363277 0.056077734 -0.018245725 0.99825972 0
-0.035149053 -0.21245021 0.021353336 0.056077726 -0.018245745 0.9982596 0
0.0060269311 -0.20425501 0.021277698 0.11584326 -0.050747108 0.9919703 0
0.019681579 -0.20090879 0.01910064 0.046102688 0.096244283 0.99428946 0
0.073221348 -0.20596151 0.029134246 0.94719887 0.25739017 0.19121866 0
-0.25915107 -0.18411207 0.021473676 -0.96198219 -0.094010659 -0.25642222 0
-0.043234542 -0.18501806 0.021382898 0.003436025 0.0035607822 0.99998778 0
-0.00044759124 -0.18384629 0.021332785 0.15085362 0.035761796 0.98790902 0
0.023073578 -0.18307629 0.018899456 0.39660075 0.10703196 0.91173029 0
0.066930488 -0.19260879 0.022616321 0.95852405 0.12662591 0.25533801 0
-0.27201203 -0.1552562 0.028430149 -0.93393946 -0.31776667 -0.16365071 0
-0.26332179 -0.16029112 0.021917684 -0.96051681 -0.27726272 -0.023084719 0
-0.17036764 -0.16159107 0.021454634 0.016708894 -0.85242319 -0.52258533 0
-0.097379394 -0.1609218 0.021419028 -0.076865427 -0.32681492 -0.94195735 0
-0.048486546 -0.16150181 0.021394564 -0.12980449 0.10986917 0.98543376 0
-0.0068014581 -0.16030984 0.02136012 0.32595232 0.10130328 0.9399429 0
0.022050327 -0.16104296 0.019068085 0.50595909 0.15178795 0.84909707 0
-0.27777553 -0.12648605 0.019418845 0.033488236 -0.94926047 -0.31270263 0
-0.26848161 -0.13839196 0.021480663 0.11289476 -0.91472119 -0.3879948 0
-0.17307387 -0.13760573 0.021434547 0.016708868 -0.85242325 -0.52258533 0
-0.10831708 -0.12855041 0.021346217 0.12046668 -0.69012278 -0.71359539 0
-0.10064246 -0.13928753 0.021413507 -0.073952794 -0.76153719 -0.64388829 0
-0.053985663 -0.13812695 0.021391463 0.18372597 -0.79971743 -0.57157397 0
-0.014183733 -0.12759072 0.021303289 -0.27006623 -0.37376726 -0.88733435 0
-0.0056003942 -0.13507591 0.020757822 -0.27006623 -0.37376723 -0.88733435 0
0.015005281 -0.13868782 0.018987199 -0.43377006 -0.27216652 -0.85893476 0
-0.22870648 -0.12583499 0.019418988 0.10600293 -0.95990282 -0.25951856 0
-0.18892692 -0.12553562 0.019402612 -0.12762795 -0.88180304 -0.45402047 0
-0.12323131 -0.12481504 0.019432439 -0.1748139 -0.88200819 -0.43760908 0
-0.096919909 -0.1245339 0.019422946 -0.073952861 -0.76153708 -0.64388841 0
-0.073418945 -0.12431802 0.019296294 -0.018992493 -0.97268391 -0.23135544 0
-0.01956041 -0.12423245 0.019811416 0.088391297 -0.964266 -0.24975625 0
0.0046844478 -0.12407412 0.018926775 -0.30543128 -0.88846797 -0.34254408 0
0.071177661 -0.24456644 0.061106071 -0.85498458 -0.4502579 -0.25742802 0
0.075606197 -0.22774526 0.053273831 -0.8446992 -0.41313756 -0.34029493 0
-0.27198958 -0.20320234 0.048468437 -0.9649989 0.0006264532 -0.26225328 0
-0.2667774 -0.20337884 0.060013544 -0.9649989 0.00062641315 -0.26225322 0
0.070331864 -0.21148737 0.050110489 -0.86174726 -0.38040593 -0.33568293 0
-0.27448094 -0.15635832 0.056735978 -0.91341949 -0.39640522 -0.092345312 0
-0.26421824 -0.1541363 0.058991704 -0.91341954 -0.39640534 -0.092345305 0
-0.28163069 -0.14151984 0.061627582 -0.824561 -0.54361475 -0.15678683 0
0.075633742 -0.24862725 0.079031326 0.92155641 0.32021213 0.21954061 0
0.05554213 -0.22745498 0.085225262 -0.81268287 -0.53911793 -0.22112978 0
0.073387504 -0.23030007 0.074872427 -0.81769812 -0.50228202 -0.28121611 0
-0.27074954 -0.20323551 0.065026186 -0.9649989 0.00062639313 -0.26225317 0
0.055389389 -0.21913467 0.070149615 -0.8549847 -0.45025781 -0.25742802 0
0.066488989 -0.21737327 0.066734001 -0.85498476 -0.45025769 -0.25742796 0
-0.27641982 -0.16089982 0.064945817 -0.97402173 -0.13137212 -0.18445301 0
-0.25590417 -0.1532575 0.06403809 -0.96691465 -0.19262797 -0.1672439 0
-0.2820254 -0.14184061 0.064980075 -0.82456118 -0.54361463 -0.15678675 0
0.063069172 -0.29137513 0.10483984 0.98622614 -0.14981703 -0.07009124 0
0.072826624 -0.27398777 0.1025264 0.99750811 -0.017614229 0.068317287 0
0.076482713 -0.25293857 0.099325605 0.93405885 0.3324306 0.13047613 0
0.069523893 -0.23654947 0.096579865 -0.83608276 -0.52370197 -0.163407 0
0.063182637 -0.31564295 0.129016 0.96690762 -0.20439549 -0.15268342 0
0.068846844 -0.29934821 0.12381392 0.97869402 -0.14952731 -0.14071079 0
0.076407559 -0.27683955 0.12287319 0.99447781 -0.09590856 -0.042609029 0
0.072066098 -0.25493175 0.12093584 0.99995899 -0.00054940692 0.0090459334 0
0.064269163 -0.24143724 0.11140278 -0.91534883 -0.35941824 -0.18153507 0
0.066345811 -0.31844258 0.14691925 0.96690762 -0.20439543 -0.15268339 0
0.074490979 -0.29939154 0.14563504 0.98916531 -0.11797399 -0.087373719 0
0.074974157 -0.2767351 0.1457376 0.99875265 -0.041780733 -0.027339702 0
0.068262614 -0.26154977 0.14046746 0.99594253 0.082924388 0.034956999 0
0.068303451 -0.32376167 0.16581187 0.98916531 -0.11797395 -0.087373681 0
0.076346382 -0.30128938 0.16103755 0.98916531 -0.11797401 -0.087373704 0
0.071765579 -0.27790582 0.15902375 0.99738157 -0.063639283 -0.034353986 0
